0.419075965881348 0.315789759159088 3.57300019264221 225 77 65
0.429864317178726 0.316568970680237 3.58200025558472 226 86 81
0.43971836566925 0.316640794277191 3.58300018310547 219 95 89
0.223277136683464 0.304432839155197 3.55100011825562 198 76 69
0.233604818582535 0.305281072854996 3.56100010871887 213 85 79
0.243166163563728 0.305100172758102 3.55900025367737 224 94 86
0.252857834100723 0.305090367794037 3.55900025367737 233 94 85
0.262696087360382 0.305251628160477 3.56100010871887 224 83 74
0.272697269916534 0.305583953857422 3.56500005722046 230 89 78
0.282719254493713 0.305915951728821 3.56900024414063 229 89 76
0.291942596435547 0.305390417575836 3.56300020217896 233 96 77
0.300962865352631 0.304693132638931 3.5550000667572 235 98 80
0.310375511646271 0.304424166679382 3.55200028419495 236 97 79
0.320401340723038 0.304754763841629 3.55600023269653 236 94 79
0.330633491277695 0.305256396532059 3.5620002746582 232 93 75
0.340419381856918 0.305329173803329 3.56300020217896 229 90 72
0.349521666765213 0.304801762104034 3.55700016021729 232 93 75
0.35909503698349 0.304702520370483 3.55600023269653 225 88 70
0.368869125843048 0.304774343967438 3.55700016021729 227 88 70
0.378966629505157 0.30510288476944 3.56100010871887 235 91 74
0.388648003339767 0.305088371038437 3.56100010871887 227 83 66
0.397768825292587 0.304645240306854 3.55600023269653 229 83 68
0.407204806804657 0.304458767175674 3.55400013923645 227 79 67
0.417449623346329 0.304871737957001 3.55900025367737 230 79 69
0.428080290555954 0.305541336536407 3.56700015068054 224 78 71
0.437893867492676 0.305610954761505 3.56800007820129 219 79 74
0.446707934141159 0.304995119571686 3.56100010871887 181 92 82
0.164260387420654 0.293067693710327 3.53000020980835 255 172 160
0.174027428030968 0.293310135602951 3.53300023078918 216 94 85
0.184070080518723 0.293967306613922 3.54100012779236 220 89 79
0.193280309438705 0.293295830488205 3.53300023078918 223 87 78
0.202503636479378 0.292707026004791 3.52600026130676 232 93 82
0.212109193205833 0.292699009180069 3.52600026130676 237 97 84
0.222279816865921 0.29343768954277 3.53500008583069 236 98 85
0.232498690485954 0.294175982475281 3.54400014877319 233 95 82
0.242150723934174 0.294166803359985 3.54400014877319 230 87 75
0.251659780740738 0.293991327285767 3.54200005531311 236 91 79
0.261599689722061 0.2943135201931 3.54600024223328 235 88 76
0.271330893039703 0.294386297464371 3.54700016975403 231 86 74
0.28114578127861 0.29454180598259 3.54900026321411 234 89 77
0.29047891497612 0.294198930263519 3.54500007629395 231 86 75
0.299619853496552 0.293689876794815 3.53900027275085 232 87 75
0.309076607227325 0.293512403964996 3.53700017929077 233 88 76
0.318971902132034 0.293749541044235 3.54000020027161 234 90 75
0.329253643751144 0.294318169355392 3.54700016975403 231 87 70
0.338712424039841 0.294139742851257 3.54500007629395 230 88 71
0.348355650901794 0.294126927852631 3.54500007629395 230 86 69
0.357795745134354 0.29394793510437 3.54300022125244 229 85 68
0.367327302694321 0.293851524591446 3.54200005531311 226 82 67
0.376532971858978 0.293505996465683 3.53800010681152 232 86 71
0.38593390583992 0.293326109647751 3.53600025177002 225 78 66
0.395658165216446 0.293394774198532 3.53700017929077 223 74 64
0.405271947383881 0.293380171060562 3.53700017929077 224 73 65
0.415001660585403 0.293448269367218 3.53800010681152 222 71 63
0.425575613975525 0.294096648693085 3.54600024223328 228 76 70
0.435455173254013 0.294247031211853 3.54800009727478 225 73 67
0.444967836141586 0.294148355722427 3.54700016975403 220 72 64
0.453576475381851 0.293468981981277 3.53900027275085 226 84 79
0.135212376713753 0.283070951700211 3.52500009536743 255 174 165
0.144696921110153 0.282824695110321 3.5220000743866 211 95 88
0.153770253062248 0.281855434179306 3.51000022888184 220 83 74
0.163149878382683 0.281528234481812 3.50600028038025 218 83 71
0.172753378748894 0.281602144241333 3.507000207901 234 98 86
0.182933479547501 0.28255894780159 3.51900005340576 235 97 82
0.192248225212097 0.282150387763977 3.51400017738342 236 96 81
0.201707303524017 0.281982392072678 3.51200008392334 235 91 76
0.211154744029045 0.281814068555832 3.51000022888184 237 93 76
0.22165946662426 0.283010274171829 3.52500009536743 236 94 79
0.231720224022865 0.283563762903214 3.53200006484985 237 95 80
0.24154494702816 0.283795744180679 3.53500008583069 232 90 75
0.250603526830673 0.283144354820251 3.52700018882751 234 89 77
0.260134041309357 0.283054620027542 3.52600026130676 238 91 79
0.269811123609543 0.283125042915344 3.52700018882751 233 86 74
0.279651135206223 0.283355712890625 3.53000020980835 229 82 70
0.289424479007721 0.283505737781525 3.53200006484985 235 88 77
0.29836106300354 0.282852858304977 3.52400016784668 230 83 71
0.307689875364304 0.282600939273834 3.52100014686584 231 84 72
0.317632079124451 0.28291055560112 3.52500009536743 232 85 73
0.327780514955521 0.283380329608917 3.5310001373291 230 86 71
0.337387204170227 0.283368289470673 3.5310001373291 235 91 76
0.346894383430481 0.283275693655014 3.53000020980835 229 83 68
0.356697857379913 0.283423453569412 3.53200006484985 227 80 68
0.366199880838394 0.283330291509628 3.5310001373291 228 81 69
0.374843776226044 0.28259488940239 3.5220000743866 227 79 67
0.383764863014221 0.282099992036819 3.51600027084351 225 76 66
0.393323212862015 0.282086223363876 3.51600027084351 234 83 75
0.403682291507721 0.282633751630783 3.52300024032593 226 75 67
0.413256943225861 0.282619386911392 3.52300024032593 221 69 63
0.423430323600769 0.283005803823471 3.52800011634827 224 72 66
0.432647615671158 0.282750278711319 3.52500009536743 230 78 72
0.442850768566132 0.283136129379272 3.53000020980835 225 74 66
0.451413422822952 0.282479017972946 3.5220000743866 224 74 68
0.460454732179642 0.282142579555511 3.51800012588501 215 95 88
0.115604750812054 0.272549033164978 3.51300024986267 199 106 104
0.124931752681732 0.272001504898071 3.50600028038025 200 83 80
0.134450256824493 0.271919101476669 3.50500011444092 234 100 94
0.14429147541523 0.272457033395767 3.51200008392334 238 102 94
0.153644576668739 0.27206364274025 3.507000207901 240 99 88
0.162969827651978 0.271669954061508 3.50200009346008 233 93 80
0.172267198562622 0.271275907754898 3.49700021743774 239 99 84
0.18216048181057 0.271812409162521 3.50400018692017 237 98 80
0.191708251833916 0.271805584430695 3.50400018692017 230 93 75
0.201140433549881 0.271643280982971 3.50200009346008 235 96 78
0.210621118545532 0.271558225154877 3.50100016593933 234 92 75
0.220661491155624 0.272170871496201 3.5090000629425 233 91 74
0.230350986123085 0.272317826747894 3.51100015640259 239 97 80
0.239982172846794 0.272386878728867 3.51200008392334 234 90 75
0.249120533466339 0.271912693977356 3.50600028038025 228 83 71
0.259184420108795 0.27244645357132 3.51300024986267 233 86 74
0.2689029276371 0.272592067718506 3.51500010490417 229 82 70
0.279027491807938 0.273125112056732 3.5220000743866 229 82 70
0.288287729024887 0.272804766893387 3.51800012588501 232 83 73
0.297863811254501 0.272794336080551 3.51800012588501 230 81 71
0.307264000177383 0.272628515958786 3.51600027084351 232 85 74
0.316922575235367 0.272695034742355 3.51700019836426 233 86 74
0.325564295053482 0.271908342838287 3.507000207901 236 89 77
0.334628134965897 0.271509051322937 3.50200009346008 229 82 70
0.344449818134308 0.27172976732254 3.50500011444092 228 81 69
0.35469064116478 0.272260248661041 3.51200008392334 230 81 71
0.36465710401535 0.272557854652405 3.51600027084351 226 77 67
0.373047590255737 0.271692365407944 3.50500011444092 231 82 72
0.382250130176544 0.271446794271469 3.50200009346008 231 82 72
0.391882538795471 0.271511018276215 3.50300025939941 231 80 72
0.402779549360275 0.272427499294281 3.51500010490417 226 75 67
0.412684679031372 0.272646099328995 3.51800012588501 222 71 63
0.421764552593231 0.272321969270706 3.51400017738342 221 69 63
0.42996209859848 0.271455138921738 3.50300025939941 224 72 66
0.439478516578674 0.27144056558609 3.50300025939941 225 74 66
0.448096245527267 0.270883291959763 3.49600005149841 223 72 64
0.457459777593613 0.270790755748749 3.49500012397766 219 73 66
0.466415673494339 0.270465552806854 3.49100017547607 213 81 75
0.124508678913116 0.26155349612236 3.49400019645691 201 106 103
0.133918091654778 0.261324316263199 3.49100017547607 232 102 86
0.143516078591347 0.261469066143036 3.49300026893616 238 103 85
0.153036773204803 0.261463761329651 3.49300026893616 239 100 89
0.162370711565018 0.261158764362335 3.48900008201599 229 89 76
0.171879306435585 0.261152803897858 3.48900008201599 237 97 84
0.18159519135952 0.261445969343185 3.49300026893616 235 93 76
0.19094917178154 0.261214822530746 3.49000024795532 235 96 77
0.200113773345947 0.260758846998215 3.48400020599365 237 96 77
0.209906697273254 0.261125832796097 3.48900008201599 233 92 73
0.220103412866592 0.261941522359848 3.50000023841858 237 93 76
0.229637518525124 0.261933654546738 3.50000023841858 228 84 67
0.238965705037117 0.26170089840889 3.49700021743774 240 96 81
0.247850313782692 0.261018872261047 3.48800015449524 232 86 71
0.258234411478043 0.261908084154129 3.50000023841858 233 87 72
0.268300384283066 0.26242271065712 3.507000207901 234 88 73
0.27816578745842 0.262712568044662 3.51100015640259 231 85 70
0.286822766065598 0.261879771947861 3.50000023841858 231 83 69
0.296096116304398 0.261645257472992 3.49700021743774 228 80 66
0.305701643228531 0.261709719896317 3.4980001449585 231 85 70
0.315041184425354 0.261549472808838 3.49600005149841 230 82 68
0.323533147573471 0.260715633630753 3.4850001335144 228 81 69
0.333015233278275 0.260704457759857 3.4850001335144 226 79 67
0.342987537384033 0.261067032814026 3.49000024795532 231 84 72
0.353591829538345 0.261878132820129 3.50100016593933 226 78 66
0.362906336784363 0.261716485023499 3.49900007247925 228 80 68
0.371570110321045 0.261105805635452 3.49100017547607 228 78 66
0.380516558885574 0.260719269514084 3.48600006103516 219 69 57
0.389882057905197 0.260631710290909 3.4850001335144 224 74 62
0.400844991207123 0.26159080862999 3.4980001449585 233 83 71
0.409648388624191 0.261128753423691 3.49200010299683 225 75 63
0.418537795543671 0.260741293430328 3.48700022697449 223 73 61
0.42690771818161 0.260054528713226 3.47800016403198 229 78 68
0.437234669923782 0.260563850402832 3.4850001335144 220 69 59
0.446444630622864 0.260400056838989 3.4830002784729 225 74 64
0.455773144960403 0.260310739278793 3.48200011253357 219 68 58
0.465094715356827 0.260221242904663 3.48100018501282 225 74 66
0.475227355957031 0.260579973459244 3.48600006103516 218 76 71
0.484273314476013 0.260340541601181 3.4830002784729 209 91 84
0.133577525615692 0.251165419816971 3.48200011253357 225 107 90
0.142617151141167 0.250367194414139 3.47100019454956 222 92 74
0.151771530508995 0.249857231974602 3.46400022506714 233 92 83
0.161399066448212 0.250140339136124 3.46800017356873 229 86 75
0.171195581555367 0.25063955783844 3.47500014305115 232 89 77
0.18087363243103 0.250922024250031 3.47900009155273 230 88 73
0.190353944897652 0.25091564655304 3.47900009155273 234 92 75
0.199316561222076 0.250259935855865 3.47000026702881 233 92 73
0.209553003311157 0.251190513372421 3.4830002784729 235 91 74
0.218916103243828 0.251038998365402 3.48100018501282 232 88 71
0.228398770093918 0.251031398773193 3.48100018501282 226 82 65
0.23712882399559 0.25023028254509 3.47000026702881 237 91 76
0.246437594294548 0.250077903270721 3.46800017356873 233 87 72
0.256767600774765 0.25093474984169 3.48000025749207 232 88 73
0.266702890396118 0.251358598470688 3.48600006103516 231 85 68
0.275956839323044 0.25113320350647 3.4830002784729 228 82 65
0.284210026264191 0.250042349100113 3.46800017356873 234 88 71
0.294158637523651 0.250465303659439 3.4740002155304 231 85 70
0.303614437580109 0.250455379486084 3.4740002155304 231 85 70
0.312798827886581 0.25022891163826 3.47100019454956 225 77 65
0.321408689022064 0.249569654464722 3.46200013160706 227 80 68
0.330924034118652 0.249631002545357 3.46300005912781 228 81 69
0.341623038053513 0.250557094812393 3.4760000705719 233 87 72
0.351684510707855 0.250978261232376 3.48200011253357 230 84 69
0.361569941043854 0.251255005598068 3.48600006103516 224 76 62
0.369772881269455 0.250378310680389 3.4740002155304 230 80 66
0.379000782966614 0.250222027301788 3.47200012207031 225 75 61
0.388216614723206 0.250065624713898 3.47000026702881 228 80 68
0.39810773730278 0.250341296195984 3.4740002155304 223 75 61
0.406846135854721 0.249896124005318 3.46800017356873 228 80 66
0.415310472249985 0.249306619167328 3.46000027656555 226 76 64
0.424589157104492 0.249221310019493 3.45900011062622 227 76 66
0.434990257024765 0.24978418648243 3.46700024604797 221 70 60
0.445176959037781 0.250202715396881 3.47300004959106 224 73 63
0.454478532075882 0.250116646289825 3.47200012207031 223 72 62
0.463639587163925 0.249958366155624 3.47000026702881 218 67 57
0.47333362698555 0.250087976455688 3.47200012207031 218 67 57
0.481368482112885 0.249353095889091 3.46200013160706 220 74 66
0.488780558109283 0.248329967260361 3.44800019264221 178 88 80
0.150900349020958 0.239032387733459 3.44400024414063 220 84 76
0.160473704338074 0.239304840564728 3.44800019264221 229 88 77
0.170413091778755 0.240062788128853 3.45900011062622 228 81 70
0.17994387447834 0.24019581079483 3.4610002040863 234 89 77
0.189484864473343 0.240328535437584 3.46300005912781 233 89 74
0.198691368103027 0.240044519305229 3.45900011062622 233 89 74
0.208657503128052 0.240662440657616 3.46800017356873 232 88 73
0.217728495597839 0.240239068865776 3.46200013160706 228 84 69
0.227290913462639 0.240370556712151 3.46400022506714 229 85 70
0.236248299479485 0.239877283573151 3.45700025558472 231 84 72
0.245592996478081 0.239800021052361 3.45600008964539 231 84 72
0.255226582288742 0.240000069141388 3.45900011062622 230 83 71
0.264416396617889 0.239783495664597 3.45600008964539 232 85 73
0.273985087871552 0.239913582801819 3.45800018310547 229 82 70
0.283153921365738 0.239696487784386 3.45500016212463 234 86 74
0.292813390493393 0.239895343780518 3.45800018310547 235 87 75
0.301701575517654 0.239469602704048 3.4520001411438 230 81 71
0.31100657582283 0.239390462636948 3.45100021362305 226 77 67
0.320119321346283 0.239172339439392 3.44800019264221 224 77 65
0.330074638128281 0.239578187465668 3.45400023460388 224 77 65
0.339963138103485 0.239914402365685 3.45900011062622 226 82 67
0.349776685237885 0.240180999040604 3.46300005912781 229 85 68
0.358366042375565 0.239615067839622 3.45500016212463 228 82 65
0.366910636425018 0.239048913121223 3.44700026512146 223 75 61
0.37650203704834 0.239176049828529 3.44900012016296 226 78 64
0.385655522346497 0.239025548100471 3.44700026512146 226 78 64
0.39582821726799 0.239498898386955 3.45400023460388 227 80 63
0.404747068881989 0.239209219813347 3.45000004768372 231 83 69
0.413882911205292 0.239058047533035 3.44800019264221 228 78 64
0.422761023044586 0.238767996430397 3.44400024414063 227 77 65
0.432870626449585 0.239170968532562 3.45000004768372 218 67 57
0.443524181842804 0.239850983023643 3.46000027656555 223 70 60
0.453314274549484 0.240045487880707 3.46300005912781 227 74 64
0.462985545396805 0.240170419216156 3.46500015258789 224 71 61
0.472120881080627 0.240017905831337 3.46300005912781 226 73 63
0.480409622192383 0.239449366927147 3.45500016212463 222 69 59
0.488086342811584 0.238603487610817 3.44300007820129 218 66 60
0.496129781007767 0.237965375185013 3.43400025367737 228 81 77
0.506477892398834 0.238435864448547 3.44100022315979 185 90 85
0.151387244462967 0.230382695794106 3.45500016212463 188 80 72
0.160385832190514 0.229777619242668 3.44600009918213 219 86 73
0.169630333781242 0.229572311043739 3.44300007820129 232 88 73
0.178961843252182 0.229500100016594 3.44200015068054 231 84 72
0.188943788409233 0.230227679014206 3.45300006866455 228 84 69
0.198295682668686 0.230154857039452 3.4520001411438 225 81 66
0.207521006464958 0.229948431253433 3.44900012016296 234 89 77
0.216163143515587 0.229141712188721 3.4370002746582 228 83 71
0.225854605436325 0.229468077421188 3.44200015068054 230 85 73
0.234752327203751 0.228994160890579 3.43500018119812 234 87 75
0.244534894824028 0.229386642575264 3.44100022315979 233 85 73
0.253685146570206 0.229178890585899 3.43800020217896 228 80 68
0.262818038463593 0.228970855474472 3.43500018119812 226 78 66
0.272012889385223 0.228829219937325 3.43300008773804 221 73 61
0.281687617301941 0.229087263345718 3.4370002746582 232 82 70
0.291467726230621 0.229411631822586 3.44200015068054 228 80 68
0.300487369298935 0.229135930538177 3.43800020217896 224 75 65
0.309844672679901 0.229126542806625 3.43800020217896 230 81 71
0.31827238202095 0.22845047712326 3.4280002117157 229 82 70
0.327982425689697 0.228707209229469 3.43200016021729 229 82 70
0.33751654624939 0.228830352425575 3.43400025367737 227 83 68
0.347161322832108 0.229019895195961 3.4370002746582 227 81 66
0.356095045804977 0.228742733597755 3.43300008773804 226 80 65
0.365112245082855 0.228531986474991 3.4300000667572 226 78 64
0.374766886234283 0.228720784187317 3.43300008773804 228 78 64
0.383541405200958 0.228376358747482 3.4280002117157 225 75 61
0.393433511257172 0.228697925806046 3.43300008773804 223 73 59
0.403351426124573 0.229019209742546 3.43800020217896 229 79 67
0.412694931030273 0.229007199406624 3.43800020217896 226 76 64
0.421546071767807 0.228728532791138 3.43400025367737 222 71 61
0.43075042963028 0.228649452328682 3.43300008773804 225 72 62
0.440588891506195 0.228903204202652 3.4370002746582 227 71 64
0.450447678565979 0.229156732559204 3.44100022315979 223 67 60
0.460059404373169 0.229276776313782 3.44300007820129 219 63 56
0.469816893339157 0.2294632345438 3.44600009918213 224 71 61
0.478615790605545 0.22918339073658 3.44200015068054 225 70 60
0.487108021974564 0.228770211338997 3.43600010871887 222 69 61
0.495566070079803 0.228356897830963 3.4300000667572 221 70 62
0.504873156547546 0.228342890739441 3.4300000667572 213 73 68
0.515677750110626 0.228994369506836 3.44000005722046 213 87 82
0.168896600604057 0.219232082366943 3.4280002117157 219 88 76
0.178135484457016 0.219098836183548 3.42600011825562 221 82 64
0.187800541520119 0.219476982951164 3.43200016021729 227 80 69
0.197210371494293 0.219535037875175 3.43300008773804 227 81 73
0.206263870000839 0.219209179282188 3.4280002117157 227 82 71
0.215415105223656 0.219010964035988 3.42500019073486 232 87 75
0.225008547306061 0.219260066747665 3.42900013923645 230 85 73
0.2340077906847 0.218933418393135 3.42400026321411 228 81 69
0.243476390838623 0.219054087996483 3.42600011825562 225 77 63
0.25229087471962 0.218599081039429 3.41900014877319 225 75 63
0.261601865291595 0.21859136223793 3.41900014877319 224 74 62
0.270674139261246 0.218391597270966 3.41600012779236 225 75 63
0.280138939619064 0.218511268496513 3.41800022125244 229 79 67
0.29003694653511 0.218950271606445 3.42500019073486 227 77 65
0.299097985029221 0.218749806284904 3.42200016975403 227 77 65
0.308231711387634 0.218612968921661 3.42000007629395 229 79 67
0.316610664129257 0.217964559793472 3.41000008583069 225 77 65
0.326080858707428 0.21808297932148 3.41200017929077 231 83 71
0.335560768842697 0.218201115727425 3.41400027275085 226 77 67
0.344848364591599 0.218191221356392 3.41400027275085 223 75 63
0.353927224874496 0.218053251504898 3.41200017929077 227 79 67
0.36363273859024 0.218298494815826 3.41600012779236 222 72 60
0.372812807559967 0.218223989009857 3.41500020027161 223 73 61
0.382657527923584 0.218532651662827 3.42000007629395 225 74 64
0.392184287309647 0.218649372458458 3.42200016975403 227 74 64
0.401720553636551 0.218765869736671 3.42400026321411 221 68 60
0.410305976867676 0.218371033668518 3.41800022125244 226 73 65
0.419225722551346 0.218167677521706 3.41500020027161 226 73 65
0.428378731012344 0.218091890215874 3.41400027275085 225 69 62
0.437909364700317 0.218207538127899 3.41600012779236 223 67 60
0.447711259126663 0.218450710177422 3.42000007629395 225 69 62
0.4575335085392 0.218693718314171 3.42400026321411 224 68 61
0.467103272676468 0.218808710575104 3.42600011825562 220 65 55
0.476265221834183 0.218731939792633 3.42500019073486 226 71 61
0.484853178262711 0.218399524688721 3.42000007629395 224 69 58
0.493845969438553 0.218258574604988 3.41800022125244 226 71 61
0.50282621383667 0.218117415904999 3.41600012779236 227 71 64
0.512093961238861 0.21810382604599 3.41600012779236 222 66 59
0.520902335643768 0.217898547649384 3.41300010681152 216 76 69
0.177412882447243 0.208906456828117 3.41200017929077 211 80 68
0.186875879764557 0.209084793925285 3.41500020027161 225 80 68
0.196009859442711 0.20889550447464 3.41200017929077 227 79 71
0.205547943711281 0.209134548902512 3.41600012779236 225 77 69
0.214666724205017 0.208944767713547 3.41300010681152 228 81 69
0.224162116646767 0.209122031927109 3.41600012779236 231 84 72
0.232784479856491 0.208503261208534 3.4060001373291 228 81 69
0.242133259773254 0.208557605743408 3.40700006484985 226 78 64
0.251338958740234 0.208489269018173 3.4060001373291 228 78 64
0.260691344738007 0.208543121814728 3.40700006484985 227 77 65
0.269731193780899 0.208351880311966 3.40400004386902 232 82 70
0.27842590212822 0.207915589213371 3.3970000743866 229 79 67
0.288012951612473 0.208152338862419 3.40100026130676 228 78 66
0.297008872032166 0.207960411906242 3.39800024032593 225 75 63
0.306438058614731 0.208074256777763 3.40000009536743 226 76 64
0.315319865942001 0.207820683717728 3.39600014686584 224 74 62
0.324943333864212 0.208056449890137 3.40000009536743 223 75 63
0.33399772644043 0.207924827933311 3.39800024032593 219 70 60
0.343443989753723 0.208037719130516 3.40000009536743 225 76 66
0.353314906358719 0.208395138382912 3.4060001373291 225 74 64
0.363217204809189 0.208752289414406 3.41200017929077 228 77 67
0.372386634349823 0.208680957555771 3.41100025177002 225 74 64
0.381661236286163 0.208670571446419 3.41100025177002 226 73 63
0.390476077795029 0.208415284752846 3.40700006484985 224 71 63
0.399971783161163 0.208526834845543 3.40900015830994 224 71 63
0.408516645431519 0.208148837089539 3.40300011634827 222 69 61
0.418500661849976 0.208504617214203 3.40900015830994 226 70 63
0.427010178565979 0.208126276731491 3.40300011634827 224 68 61
0.435998380184174 0.207992404699326 3.40100026130676 223 67 60
0.444974333047867 0.207858324050903 3.39900016784668 227 71 64
0.45447239279747 0.207968696951866 3.40100026130676 230 74 67
0.464525282382965 0.208323433995247 3.40700006484985 222 69 61
0.473357737064362 0.208127677440643 3.40400004386902 227 71 64
0.482881307601929 0.208237454295158 3.4060001373291 228 73 62
0.492125153541565 0.208224788308144 3.4060001373291 218 63 53
0.5004842877388 0.207845166325569 3.40000009536743 226 66 57
0.509858727455139 0.207893297076225 3.40100026130676 225 65 56
0.51832115650177 0.207574516534805 3.39600014686584 223 67 60
0.528774440288544 0.208050191402435 3.40400004386902 222 76 69
0.538321256637573 0.208158954977989 3.4060001373291 211 81 75
0.186279281973839 0.199135437607765 3.40400004386902 214 86 88
0.195038825273514 0.198603585362434 3.39500021934509 215 75 70
0.204290166497231 0.19859804213047 3.39500021934509 221 71 65
0.213414877653122 0.198475196957588 3.39300012588501 227 78 68
0.222856014966965 0.198644623160362 3.39600014686584 229 80 70
0.231492474675179 0.19811187684536 3.38700008392334 232 82 70
0.2407186627388 0.198105335235596 3.38700008392334 232 82 68
0.249943971633911 0.198098570108414 3.38700008392334 229 79 65
0.259703904390335 0.198500961065292 3.39400005340576 225 75 61
0.268629342317581 0.198259741067886 3.39000010490417 225 76 59
0.277859926223755 0.198252245783806 3.39000010490417 229 79 67
0.286835372447968 0.198069125413895 3.38700008392334 223 72 62
0.29561859369278 0.197768792510033 3.382000207901 224 74 62
0.304643899202347 0.19764369726181 3.38000011444092 225 76 59
0.31421434879303 0.197869226336479 3.3840000629425 225 76 59
0.32361426949501 0.197977557778358 3.38600015640259 226 76 64
0.333122223615646 0.198144152760506 3.38900017738342 219 70 60
0.342342227697372 0.198135122656822 3.38900017738342 229 78 68
0.35249462723732 0.198651999235153 3.39800024032593 223 72 62
0.362481862306595 0.199051722884178 3.40500020980835 230 80 68
0.371304959058762 0.198808193206787 3.40100026130676 226 74 62
0.381223887205124 0.19914898276329 3.40700006484985 225 73 61
0.389798879623413 0.198788166046143 3.40100026130676 225 72 62
0.398926466703415 0.198719397187233 3.40000009536743 223 70 62
0.406726777553558 0.198007583618164 3.38800024986267 227 74 66
0.416424721479416 0.198230683803558 3.39200019836426 226 70 63
0.425139129161835 0.1979860663414 3.38800024986267 229 74 64
0.434086829423904 0.197858154773712 3.38600015640259 223 70 62
0.442629426717758 0.197554796934128 3.38100004196167 229 74 64
0.452880591154099 0.198010832071304 3.38900017738342 231 75 68
0.462355732917786 0.1981161236763 3.39100027084351 222 66 59
0.471701115369797 0.198162779211998 3.39200019836426 225 69 62
0.480341613292694 0.197917193174362 3.38800024986267 227 70 60
0.489392340183258 0.197846710681915 3.38700008392334 218 61 51
0.49770000576973 0.197484016418457 3.38100004196167 228 68 59
0.50702303647995 0.197530046105385 3.382000207901 226 65 54
0.515434145927429 0.197225496172905 3.37700009346008 221 61 52
0.525370061397552 0.197504863142967 3.382000207901 225 68 58
0.534225106239319 0.197375237941742 3.38000011444092 214 72 67
0.543228447437286 0.197303891181946 3.37900018692017 201 80 75
0.194699481129646 0.189017087221146 3.38900017738342 200 82 76
0.203453287482262 0.188565582036972 3.38100004196167 216 69 65
0.21197398006916 0.187946557998657 3.37000012397766 227 78 70
0.221418336033821 0.188163876533508 3.37400007247925 225 74 64
0.230268478393555 0.18787907063961 3.36900019645691 222 72 60
0.239374801516533 0.187817081809044 3.36800026893616 226 76 62
0.24847474694252 0.18775486946106 3.36700010299683 226 76 62
0.258180469274521 0.188138529658318 3.37400007247925 223 73 59
0.267447948455811 0.188187420368195 3.37500023841858 224 77 60
0.277047663927078 0.188459068536758 3.38000011444092 221 73 59
0.285826742649078 0.188172966241837 3.37500023841858 219 72 60
0.294577479362488 0.187886625528336 3.37000012397766 228 81 64
0.303390145301819 0.187655881047249 3.36600017547607 223 76 58
0.313015550374985 0.187926650047302 3.37100005149841 219 73 51
0.322093546390533 0.187862724065781 3.37000012397766 224 78 61
0.331459879875183 0.187965825200081 3.37200021743774 225 78 66
0.341037929058075 0.188180193305016 3.37600016593933 223 74 64
0.351570159196854 0.188895985484123 3.38900017738342 224 73 65
0.361107289791107 0.189054146409035 3.39200019836426 226 76 62
0.370550274848938 0.189156353473663 3.39400005340576 222 72 58
0.379107654094696 0.188812524080276 3.38800024986267 223 71 57
0.388089627027512 0.188691452145576 3.38600015640259 226 74 62
0.397059261798859 0.18857017159462 3.3840000629425 223 71 59
0.404936283826828 0.187947273254395 3.3730001449585 224 71 61
0.414102613925934 0.187937125563622 3.3730001449585 223 68 58
0.422765612602234 0.187703967094421 3.36900019645691 222 67 57
0.432302832603455 0.18786059319973 3.37200021743774 229 74 64
0.440545707941055 0.187459975481033 3.36500024795532 223 68 58
0.450352728366852 0.187727674841881 3.37000012397766 224 68 61
0.459776431322098 0.187828093767166 3.37200021743774 228 72 65
0.469348579645157 0.187984019517899 3.37500023841858 229 71 64
0.478368401527405 0.187916994094849 3.37400007247925 231 71 62
0.487236797809601 0.187794134020805 3.37200021743774 226 66 57
0.496092766523361 0.187671110033989 3.37000012397766 227 66 55
0.504336595535278 0.187325224280357 3.36400008201599 230 68 57
0.512851715087891 0.187090590596199 3.3600001335144 226 64 55
0.521654188632965 0.186967194080353 3.3580002784729 229 66 57
0.531234562397003 0.187122046947479 3.36100006103516 228 65 58
0.540829658508301 0.187276750802994 3.36400008201599 232 69 64
0.550602912902832 0.187486991286278 3.36800026893616 225 66 63
0.203097507357597 0.179033100605011 3.37500023841858 217 76 73
0.21084725856781 0.177807793021202 3.35200023651123 225 77 70
0.220045924186707 0.177855387330055 3.35300016403198 226 73 63
0.229044109582901 0.177743628621101 3.3510000705719 226 76 64
0.238243743777275 0.177790760993958 3.35200023651123 223 73 61
0.246783763170242 0.177360355854034 3.34400010108948 227 77 65
0.256427109241486 0.177725315093994 3.3510000705719 225 75 61
0.265949100255966 0.177983969449997 3.35600018501282 229 82 65
0.276071131229401 0.178613603115082 3.36800026893616 227 81 64
0.285156458616257 0.178553581237793 3.36700010299683 225 100 70
0.302406311035156 0.177902713418007 3.35500025749207 255 157 107
0.311166256666183 0.177683040499687 3.3510000705719 235 110 72
0.319903314113617 0.177463203668594 3.34700012207031 212 78 45
0.329502195119858 0.177720367908478 3.35200023651123 213 72 53
0.339531093835831 0.178189367055893 3.36100006103516 215 71 54
0.349400371313095 0.178552135825157 3.36800026893616 227 79 65
0.358987033367157 0.178755611181259 3.37200021743774 223 73 59
0.368048250675201 0.178693830966949 3.37100005149841 222 73 56
0.377438485622406 0.178790897130966 3.3730001449585 225 73 57
0.386265158653259 0.178622752428055 3.37000012397766 220 70 56
0.394956916570663 0.178401455283165 3.36600017547607 224 74 60
0.402545034885406 0.177703008055687 3.35300016403198 223 71 59
0.411043286323547 0.177428424358368 3.34800004959106 224 71 61
0.42051687836647 0.177577629685402 3.3510000705719 222 67 56
0.430774688720703 0.178044587373734 3.3600001335144 229 74 64
0.43950879573822 0.177875503897667 3.35700011253357 226 70 63
0.448759734630585 0.17791822552681 3.3580002784729 226 70 63
0.457332879304886 0.177695840597153 3.35400009155273 229 71 64
0.466856271028519 0.177844196557999 3.35700011253357 231 73 66
0.475543826818466 0.177674517035484 3.35400009155273 227 67 58
0.484936088323593 0.17776957154274 3.35600018501282 222 62 53
0.493601560592651 0.177599638700485 3.35300016403198 227 65 54
0.501649558544159 0.177217736840248 3.34600019454956 234 71 62
0.509505331516266 0.176782742142677 3.33800005912781 232 69 60
0.51824826002121 0.176665440201759 3.3360002040863 230 67 60
0.527769207954407 0.176812782883644 3.33900022506714 224 61 54
0.538590908050537 0.177383586764336 3.35000014305115 226 62 57
0.548816800117493 0.177742391824722 3.35700011253357 228 64 61
0.55924516916275 0.178153991699219 3.36500024795532 220 66 62
0.568532943725586 0.178194805979729 3.36600017547607 202 86 80
0.210537955164909 0.168420597910881 3.34700012207031 189 80 68
0.219132572412491 0.168012872338295 3.33900022506714 217 74 65
0.227956101298332 0.167806223034859 3.33500027656555 224 75 67
0.23725451529026 0.167951613664627 3.33800005912781 226 76 64
0.245756611227989 0.167543321847916 3.33000016212463 231 81 69
0.254826366901398 0.167537361383438 3.33000016212463 223 73 59
0.264370620250702 0.167833060026169 3.3360002040863 224 78 60
0.274356424808502 0.168380066752434 3.34700012207031 226 83 62
0.301692456007004 0.168359696865082 3.34700012207031 244 223 78
0.310523718595505 0.168201640248299 3.34400010108948 246 224 75
0.318764001131058 0.167741626501083 3.33500027656555 248 226 77
0.327838897705078 0.16773410141468 3.33500027656555 255 232 91
0.365873247385025 0.168506771326065 3.3510000705719 193 101 32
0.374873548746109 0.168448060750961 3.35000014305115 186 72 23
0.384325623512268 0.168590277433395 3.35300016403198 207 69 46
0.393088579177856 0.168430641293526 3.35000014305115 213 70 51
0.401473790407181 0.168120041489601 3.34400010108948 221 72 55
0.409456670284271 0.167658478021622 3.33500027656555 221 72 54
0.418895125389099 0.167800024151802 3.33800005912781 222 70 54
0.42911770939827 0.168243020772934 3.34700012207031 225 67 60
0.437816709280014 0.168082639575005 3.34400010108948 225 70 60
0.446097016334534 0.167771354317665 3.33800005912781 223 66 56
0.455025047063828 0.167711213231087 3.33700013160706 226 66 57
0.465336948633194 0.168153509497643 3.34600019454956 236 74 67
0.474987298250198 0.168344333767891 3.35000014305115 231 69 62
0.483646273612976 0.168183252215385 3.34700012207031 228 66 57
0.49199303984642 0.16792157292366 3.34200024604797 229 66 57
0.49986132979393 0.167509034276009 3.33400011062622 226 63 56
0.50875324010849 0.167448118329048 3.33300018310547 229 66 59
0.517482697963715 0.167336821556091 3.33100008964539 228 65 58
0.526832103729248 0.167426347732544 3.33300018310547 232 66 61
0.536833822727203 0.167716681957245 3.33900022506714 230 64 59
0.54637610912323 0.16785617172718 3.34200024604797 233 69 64
0.556265354156494 0.168095946311951 3.34700012207031 227 64 57
0.564997792243958 0.167984068393707 3.34500026702881 223 59 54
0.573889374732971 0.167922288179398 3.34400010108948 221 81 76
0.219006404280663 0.158817127346992 3.33700013160706 216 82 76
0.227551311254501 0.158431306481361 3.32900023460388 217 68 64
0.236478179693222 0.158330872654915 3.3270001411438 218 67 59
0.245171904563904 0.158087477087975 3.32200026512146 222 72 60
0.254066973924637 0.157986655831337 3.32000017166138 231 81 69
0.2634257376194 0.158171162009239 3.32400012016296 222 75 57
0.272723317146301 0.158307909965515 3.3270001411438 224 79 58
0.290839850902557 0.158295288681984 3.3270001411438 248 221 94
0.299806416034698 0.158241167664528 3.32600021362305 249 228 76
0.308859258890152 0.158234417438507 3.32600021362305 249 229 72
0.317624241113663 0.158084765076637 3.32300019264221 247 229 72
0.326764941215515 0.158125221729279 3.32400012016296 247 227 71
0.335808873176575 0.158117964863777 3.32400012016296 250 230 73
0.345059096813202 0.158205643296242 3.32600021362305 248 227 75
0.354106038808823 0.158198028802872 3.32600021362305 247 225 77
0.363260924816132 0.158237814903259 3.3270001411438 250 226 77
0.37241992354393 0.158277422189713 3.32800006866455 255 235 96
0.381583124399185 0.158316865563393 3.32900023460388 255 227 109
0.408237785100937 0.158101379871368 3.32500004768372 255 161 122
0.417523771524429 0.158187747001648 3.3270001411438 213 72 53
0.427203863859177 0.158416584134102 3.33200025558472 232 72 63
0.435862213373184 0.15826490521431 3.32900023460388 228 71 60
0.444235503673553 0.15801802277565 3.32400012016296 233 73 64
0.453125715255737 0.157961174845695 3.32300019264221 229 69 60
0.463538825511932 0.158427074551582 3.33300018310547 231 69 60
0.473012208938599 0.158560037612915 3.3360002040863 229 67 58
0.481488853693008 0.158360183238983 3.33200025558472 227 64 55
0.489794999361038 0.158112674951553 3.3270001411438 229 66 57
0.498672217130661 0.158055171370506 3.32600021362305 231 68 59
0.507847785949707 0.158092603087425 3.3270001411438 232 66 60
0.516716539859772 0.158034861087799 3.32600021362305 232 66 60
0.525420129299164 0.157929465174675 3.32400012016296 231 65 60
0.534754574298859 0.158014044165611 3.32600021362305 232 66 61
0.54328066110611 0.157860949635506 3.32300019264221 233 69 64
0.551955223083496 0.15775528550148 3.32100009918213 233 67 62
0.560786187648773 0.157697021961212 3.32000017166138 233 67 61
0.569610178470612 0.157638669013977 3.31900024414063 230 70 63
0.578252792358398 0.157532721757889 3.31700015068054 222 76 69
0.227829769253731 0.149537160992622 3.33300018310547 177 85 86
0.235985830426216 0.148948952555656 3.32000017166138 201 71 65
0.244144022464752 0.148405447602272 3.30800008773804 220 68 62
0.252695053815842 0.148130998015404 3.30200004577637 219 68 60
0.262004971504211 0.148304969072342 3.30600023269653 224 74 60
0.271253734827042 0.148433893918991 3.30900025367737 219 71 49
0.289097726345062 0.148332327604294 3.30700016021729 250 226 87
0.297919899225235 0.148236453533173 3.3050000667572 247 226 73
0.307380080223084 0.148454383015633 3.31000018119812 247 227 71
0.3160060942173 0.148268476128578 3.30600023269653 249 230 68
0.32539564371109 0.148441210389137 3.31000018119812 249 230 68
0.334199577569962 0.148344680666924 3.30800008773804 248 231 71
0.343406438827515 0.148427367210388 3.31000018119812 248 231 69
0.352090656757355 0.148285686969757 3.30700016021729 249 230 78
0.361303210258484 0.148368060588837 3.30900025367737 250 232 65
0.370301514863968 0.148360580205917 3.30900025367737 249 232 61
0.379642456769943 0.148487478494644 3.3120002746582 246 229 67
0.38911572098732 0.148659020662308 3.31600022315979 246 227 75
0.398729383945465 0.148875206708908 3.32100009918213 248 227 82
0.407509535551071 0.148777484893799 3.31900024414063 255 232 112
0.415775388479233 0.148500308394432 3.31300020217896 189 80 24
0.424904674291611 0.148536771535873 3.31400012969971 230 68 59
0.433645248413086 0.148438647389412 3.3120002746582 227 64 57
0.442239820957184 0.148295551538467 3.30900025367737 230 67 58
0.451225757598877 0.148286804556847 3.30900025367737 227 65 54
0.461044639348984 0.148546785116196 3.31500005722046 234 71 62
0.471036523580551 0.148851424455643 3.32200026512146 234 71 62
0.47904172539711 0.148528590798378 3.31500005722046 234 71 62
0.487301886081696 0.148295313119888 3.31000018119812 229 66 57
0.495983183383942 0.148196339607239 3.30800008773804 228 66 55
0.506025850772858 0.14850041270256 3.31500005722046 232 67 58
0.515328228473663 0.148580387234688 3.31700015068054 226 61 52
0.523849546909332 0.148436278104782 3.31400012969971 235 68 59
0.532513797283173 0.148336872458458 3.3120002746582 231 64 55
0.54034811258316 0.148013412952423 3.3050000667572 231 65 59
0.548475325107574 0.147779509425163 3.30000019073486 231 65 59
0.557587325572968 0.147814184427261 3.30100011825562 232 69 62
0.567389667034149 0.148027867078781 3.30600023269653 235 72 65
0.575997233390808 0.14792799949646 3.30400013923645 233 69 64
0.585654497146606 0.148096680641174 3.30800008773804 232 75 72
0.235919684171677 0.139857456088066 3.31900024414063 200 72 66
0.243632435798645 0.139094114303589 3.30100011825562 218 75 66
0.251705408096313 0.138583540916443 3.28900027275085 222 72 66
0.26105934381485 0.13878907263279 3.29400014877319 216 66 52
0.269947677850723 0.13874164223671 3.29300022125244 216 68 46
0.278321355581284 0.138441279530525 3.28600025177002 255 230 116
0.287092983722687 0.138351410627365 3.28400015830994 247 224 80
0.296032935380936 0.138345643877983 3.28400015830994 248 228 72
0.305157542228699 0.138423979282379 3.28600025177002 248 228 71
0.313813954591751 0.138291537761688 3.28300023078918 247 228 65
0.323534339666367 0.138622283935547 3.29100012779236 248 229 66
0.332791864871979 0.138742223381996 3.29400014877319 246 230 64
0.342168301343918 0.13890415430069 3.29800009727478 250 234 70
0.350713521242142 0.138728976249695 3.29400014877319 249 233 69
0.359672486782074 0.138722121715546 3.29400014877319 251 235 71
0.368406355381012 0.138630911707878 3.29200005531311 249 234 66
0.377586632966995 0.138707995414734 3.29400014877319 251 232 70
0.387128442525864 0.138911262154579 3.29900026321411 254 233 80
0.39669606089592 0.13911435008049 3.30400013923645 252 229 84
0.405430108308792 0.139022588729858 3.30200004577637 255 232 109
0.413649886846542 0.138762280344963 3.29600024223328 188 72 15
0.422348529100418 0.138670265674591 3.29400014877319 228 65 56
0.432082325220108 0.13891489803791 3.30000019073486 231 69 58
0.441178977489471 0.138948887586594 3.30100011825562 224 61 52
0.450143367052078 0.138940691947937 3.30100011825562 229 66 57
0.45854988694191 0.1387639939785 3.29700016975403 227 64 55
0.467358708381653 0.138713464140892 3.29600024223328 228 65 56
0.475582420825958 0.138494476675987 3.29100012779236 233 70 61
0.48480811715126 0.138569980859756 3.29300022125244 236 73 64
0.493293464183807 0.13843497633934 3.29000020027161 233 71 60
0.502218902111053 0.138426080346107 3.29000020027161 233 68 58
0.511608958244324 0.138543337583542 3.29300022125244 236 69 59
0.521013796329498 0.138660445809364 3.29600024223328 231 64 55
0.530593931674957 0.138819485902786 3.30000019073486 238 71 62
0.538232326507568 0.138473659753799 3.29200005531311 236 66 60
0.546823024749756 0.138380169868469 3.29000020027161 232 64 59
0.555570244789124 0.1383286267519 3.28900027275085 231 65 62
0.566713094711304 0.138865754008293 3.30200004577637 234 70 67
0.575832903385162 0.138898119330406 3.3030002117157 231 67 64
0.585310518741608 0.13901449739933 3.30600023269653 228 73 71
0.593544602394104 0.138836458325386 3.30200004577637 216 75 72
0.251021534204483 0.129264041781425 3.28000020980835 195 79 72
0.259796321392059 0.129180431365967 3.27800011634827 220 75 64
0.268559277057648 0.129096701741219 3.27600026130676 200 56 39
0.277225583791733 0.128973379731178 3.27300024032593 255 232 95
0.285961985588074 0.128889352083206 3.27100014686584 248 228 71
0.29477658867836 0.128844574093819 3.27000021934509 248 229 66
0.303770333528519 0.128878459334373 3.27100014686584 251 232 69
0.312194883823395 0.128675788640976 3.26600027084351 250 232 65
0.321672558784485 0.128906354308128 3.2720000743866 248 230 63
0.330777525901794 0.128979206085205 3.27400016784668 249 233 67
0.339995920658112 0.129091277718544 3.27700018882751 250 234 68
0.348910063505173 0.129085019230843 3.27700018882751 248 232 66
0.358150511980057 0.12919682264328 3.28000020980835 245 229 63
0.366958349943161 0.129150897264481 3.27900004386902 250 232 66
0.376561880111694 0.1293805539608 3.28500008583069 250 232 66
0.385610014200211 0.129413157701492 3.28600025177002 253 233 67
0.395142465829849 0.129603117704391 3.29100012779236 253 231 72
0.411900341510773 0.129234477877617 3.28200006484985 194 70 18
0.420561075210571 0.129148438572884 3.28000020980835 224 62 51
0.429995119571686 0.129298508167267 3.28400015830994 231 69 56
0.43931582570076 0.129409089684486 3.28700017929077 227 65 54
0.448651313781738 0.129519522190094 3.29000020027161 230 68 57
0.45674991607666 0.129275545477867 3.28400015830994 230 68 57
0.464672774076462 0.128992140293121 3.27700018882751 228 66 55
0.472845017910004 0.128787338733673 3.2720000743866 232 69 60
0.48216649889946 0.128897354006767 3.27500009536743 232 69 60
0.490902960300446 0.128849819302559 3.27400016784668 231 69 56
0.499632447957993 0.128802195191383 3.27300024032593 230 64 58
0.508976519107819 0.128911882638931 3.27600026130676 228 59 57
0.518493354320526 0.129060789942741 3.28000020980835 225 62 55
0.528030276298523 0.129209578037262 3.28400015830994 232 70 61
0.536933362483978 0.129200890660286 3.28400015830994 223 66 63
0.545834898948669 0.129192113876343 3.28400015830994 219 59 60
0.555410444736481 0.129340589046478 3.28800010681152 200 58 61
0.567065715789795 0.129960998892784 3.30400013923645 181 63 66
0.259325474500656 0.120025366544724 3.2720000743866 213 76 71
0.267334401607513 0.119617268443108 3.26100015640259 221 91 73
0.275451809167862 0.119282439351082 3.25200009346008 255 232 99
0.284655690193176 0.119424298405647 3.25600004196167 248 227 75
0.293159157037735 0.119272597134113 3.25200009346008 248 232 68
0.302382677793503 0.119414187967777 3.25600004196167 246 231 63
0.310862123966217 0.119262225925922 3.25200009346008 247 231 57
0.320301830768585 0.1194768846035 3.25800013542175 250 234 60
0.32876268029213 0.119324669241905 3.25400018692017 249 234 64
0.337926834821701 0.119429029524326 3.257000207901 247 232 64
0.346360802650452 0.119276575744152 3.25300025939941 249 234 66
0.355754464864731 0.119453988969326 3.25800013542175 248 230 63
0.364950299263 0.119557946920395 3.26100015640259 252 234 68
0.374619632959366 0.11980839073658 3.26800012588501 250 232 66
0.383738994598389 0.11987542361021 3.27000021934509 252 232 65
0.39226758480072 0.119759015738964 3.26700019836426 254 230 75
0.409773796796799 0.119672529399395 3.26500010490417 231 76 56
0.418516635894775 0.119629114866257 3.26400017738342 234 72 59
0.427514523267746 0.119658879935741 3.26500010490417 227 67 51
0.436249047517776 0.119615241885185 3.26400017738342 230 68 57
0.445522278547287 0.119718089699745 3.26700019836426 234 72 61
0.454253971576691 0.119674243032932 3.26600027084351 228 66 57
0.462836980819702 0.119593657553196 3.26400017738342 232 69 60
0.471696674823761 0.119586251676083 3.26400017738342 235 73 66
0.48011314868927 0.119468845427036 3.26100015640259 231 67 62
0.488961637020111 0.119461238384247 3.26100015640259 229 67 54
0.497656047344208 0.119416944682598 3.26000022888184 234 70 67
0.507120192050934 0.119555674493313 3.26400017738342 218 54 53
0.516604602336884 0.119694292545319 3.26800012588501 215 59 62
0.526269912719727 0.119869448244572 3.27300024032593 220 76 78
0.535960793495178 0.120044477283955 3.27800011634827 244 129 129
0.267256915569305 0.110694535076618 3.26000022888184 167 76 82
0.275202304124832 0.110316663980484 3.24900007247925 221 108 79
0.301366090774536 0.110167033970356 3.24500012397766 252 233 71
0.310198128223419 0.110162176191807 3.24500012397766 250 232 66
0.319422274827957 0.110292978584766 3.24900007247925 251 234 64
0.32795974612236 0.110186018049717 3.24600005149841 248 234 62
0.336479783058167 0.110078983008862 3.24300026893616 249 232 61
0.34487572312355 0.109937861561775 3.23900008201599 253 235 68
0.354122281074524 0.110068187117577 3.24300026893616 251 233 66
0.363165527582169 0.110130473971367 3.24500012397766 250 232 65
0.372906148433685 0.110396295785904 3.25300025939941 252 234 68
0.381280720233917 0.110254727303982 3.24900007247925 252 234 68
0.389512181282043 0.110079146921635 3.24400019645691 255 230 79
0.407772094011307 0.110236644744873 3.24900007247925 228 79 53
0.416856288909912 0.110298275947571 3.25100016593933 231 73 57
0.425557076931 0.110258005559444 3.25000023841858 226 68 52
0.433582723140717 0.11004801094532 3.24400019645691 229 68 57
0.442392587661743 0.110041484236717 3.24400019645691 232 73 62
0.451757371425629 0.110170520842075 3.2480001449585 234 74 67
0.46100065112114 0.110265538096428 3.25100016593933 232 72 66
0.470114201307297 0.110326543450356 3.25300025939941 231 74 71
0.478206396102905 0.110150039196014 3.2480001449585 214 60 56
0.487769484519959 0.110312588512897 3.25300025939941 213 61 57
0.496747463941574 0.110339388251305 3.25400018692017 216 71 70
0.506506264209747 0.110535629093647 3.26000022888184 230 87 96
0.274613618850708 0.101241916418076 3.24200010299683 197 71 65
0.283003687858582 0.101081661880016 3.23700022697449 198 57 46
0.291004925966263 0.100796401500702 3.22800016403198 208 59 41
0.299791902303696 0.100792057812214 3.22800016403198 245 102 71
0.326247125864029 0.100809589028358 3.22900009155273 255 230 107
0.334928452968597 0.100773580372334 3.22800016403198 254 227 92
0.343816161155701 0.100799910724163 3.22900009155273 251 230 78
0.352817237377167 0.100857339799404 3.23100018501282 251 232 70
0.361827909946442 0.100914649665356 3.23300004005432 251 232 69
0.370504319667816 0.100878223776817 3.23200011253357 250 234 70
0.379056632518768 0.10081048309803 3.23000025749207 251 235 78
0.387116432189941 0.100617811083794 3.2240002155304 254 232 83
0.405142337083817 0.100731514394283 3.22800016403198 230 74 58
0.414810687303543 0.100944235920906 3.2350001335144 234 75 62
0.423729956150055 0.100969612598419 3.23600006103516 227 71 57
0.431183099746704 0.10065171867609 3.2260000705719 228 74 60
0.440626055002213 0.100801721215248 3.23100018501282 226 74 62
0.449955582618713 0.100920416414738 3.2350001335144 204 57 54
0.46043998003006 0.101288586854935 3.24700021743774 197 63 64
0.282657980918884 0.0921441838145256 3.23300004005432 208 70 69
0.290197640657425 0.0917413160204887 3.21900010108948 221 65 58
0.297938644886017 0.0914238840341568 3.20800018310547 225 73 61
0.306670159101486 0.0914198458194733 3.20800018310547 225 77 56
0.315793842077255 0.0915296748280525 3.21200013160706 215 70 45
0.325544416904449 0.0918103829026222 3.22200012207031 196 78 29
0.334206759929657 0.0917775183916092 3.22100019454956 185 85 17
0.360489845275879 0.0917638465762138 3.22100019454956 254 227 88
0.369248360395432 0.091759093105793 3.22100019454956 255 240 93
0.377770841121674 0.0916972756385803 3.21900010108948 255 243 92
0.386281162500381 0.0916353762149811 3.21700024604797 255 242 104
0.403641670942307 0.0915967598557472 3.21600008010864 222 71 63
