-0.0255290996283293 0.472829192876816 3.6010000705719 255 136 117
-0.0156745743006468 0.471517354249954 3.59100008010864 255 137 118
-0.00588268507272005 0.470861494541168 3.5860002040863 255 136 117
0.00389824295416474 0.472174614667892 3.59600019454956 255 139 120
0.0137298386543989 0.473355829715729 3.60500025749207 254 133 116
0.0234732292592525 0.471779018640518 3.59300017356873 253 132 118
0.033262237906456 0.471777379512787 3.59300017356873 255 143 119
0.043027151376009 0.47151243686676 3.59100008010864 245 129 114
0.0528398379683495 0.471772164106369 3.59300017356873 248 134 120
0.0625935047864914 0.471506178379059 3.59100008010864 252 139 128
-0.123290576040745 0.461716264486313 3.59100008010864 245 124 111
-0.112971588969231 0.459537327289581 3.57400012016296 248 131 118
-0.102889239788055 0.458000749349594 3.5620002746582 251 133 116
-0.0933166146278381 0.458649396896362 3.56700015068054 255 136 117
-0.083599217236042 0.45865461230278 3.56700015068054 255 136 117
-0.0741300582885742 0.460202217102051 3.57900023460388 255 136 115
-0.0643793866038322 0.46020632982254 3.57900023460388 254 135 114
-0.054720051586628 0.460981369018555 3.58500027656555 255 136 115
-0.0448648072779179 0.460084110498428 3.57800006866455 255 138 117
-0.03515550121665 0.460600823163986 3.58200025558472 255 135 112
-0.0253462810069323 0.459702521562576 3.57500028610229 253 133 112
-0.0155751062557101 0.458803623914719 3.56800007820129 255 135 114
-0.00585678545758128 0.45906138420105 3.57000017166138 253 132 113
0.00388329685665667 0.460604518651962 3.58200025558472 255 136 117
0.0136811397969723 0.461889922618866 3.59200024604797 249 128 109
0.0234223566949368 0.46098867058754 3.58500027656555 255 137 120
0.0331438593566418 0.460344076156616 3.58000016212463 254 133 116
0.0428859144449234 0.460213243961334 3.57900023460388 251 128 111
0.0525341182947159 0.459310322999954 3.57200026512146 252 131 117
0.0622311532497406 0.459049791097641 3.57000017166138 248 130 115
0.0719573646783829 0.459045857191086 3.57000017166138 251 137 122
0.0817748233675957 0.45955565571785 3.57400012016296 244 134 120
0.091460146009922 0.459293454885483 3.57200026512146 237 124 113
-0.142980009317398 0.452321380376816 3.59400010108948 234 126 116
-0.132486507296562 0.449938088655472 3.57500028610229 241 124 111
-0.12254236638546 0.44919028878212 3.56900024414063 249 123 107
-0.112503990530968 0.447938442230225 3.55900025367737 255 134 115
-0.102721907198429 0.447567045688629 3.55600023269653 255 135 116
-0.0929557606577873 0.447195082902908 3.5530002117157 255 135 118
-0.0833228230476379 0.447451889514923 3.5550000667572 252 131 114
-0.0737822502851486 0.448337525129318 3.5620002746582 254 133 114
-0.0641672685742378 0.448970824480057 3.56700015068054 254 133 114
-0.0544790104031563 0.449226021766663 3.56900024414063 254 133 114
-0.044679332524538 0.448473691940308 3.56300020217896 254 133 114
-0.0349121801555157 0.447720736265183 3.55700016021729 254 131 112
-0.0251492336392403 0.446463793516159 3.54700016975403 250 127 108
-0.0154843423515558 0.446464955806732 3.54700016975403 255 135 118
-0.00583087699487805 0.44734662771225 3.55400013923645 255 134 117
0.00386726087890565 0.448983013629913 3.56700015068054 247 126 109
0.0136248040944338 0.450241237878799 3.5770001411438 251 130 111
0.0233322512358427 0.449484944343567 3.57100009918213 254 131 112
0.0330532044172287 0.44935742020607 3.57000017166138 254 131 112
0.0427206493914127 0.448725879192352 3.56500005722046 253 130 111
0.0522430278360844 0.447086900472641 3.55200028419495 255 134 117
0.0618164017796516 0.446328341960907 3.54600024223328 252 129 110
0.0714777782559395 0.446324497461319 3.54600024223328 252 131 112
0.0813677161931992 0.447578728199005 3.55600023269653 252 132 113
0.091055765748024 0.447573781013489 3.55600023269653 252 132 113
0.10094179213047 0.44844925403595 3.56300020217896 250 132 115
0.110834538936615 0.449198365211487 3.56900024414063 235 125 115
-0.150737136602402 0.436636060476303 3.54600024223328 231 134 123
-0.141118258237839 0.436767399311066 3.54700016975403 243 127 112
-0.131752818822861 0.437760204076767 3.5550000667572 250 130 113
-0.121931254863739 0.437274783849716 3.55100011825562 249 124 105
-0.11213106662035 0.436788856983185 3.54700016975403 254 131 112
-0.10209222137928 0.435194075107574 3.53400015830994 254 131 112
-0.0923331528902054 0.434583842754364 3.5290002822876 250 129 110
-0.0828588008880615 0.435327678918839 3.53500008583069 246 125 106
-0.0733721703290939 0.436194121837616 3.54200005531311 253 130 111
-0.0638111457228661 0.436813771724701 3.54700016975403 255 134 117
-0.0541768260300159 0.437063485383987 3.54900026321411 253 130 111
-0.0445063300430775 0.437066286802292 3.54900026321411 252 129 110
-0.0348062105476856 0.436699062585831 3.54600024223328 255 134 115
-0.025072680786252 0.43546923995018 3.53600025177002 254 131 112
-0.0154503053054214 0.435839861631393 3.53900027275085 255 132 118
-0.00582136772572994 0.436948835849762 3.54800009727478 254 131 114
0.00385447265580297 0.437810927629471 3.5550000667572 253 132 115
0.0135341649875045 0.437564134597778 3.5530002117157 255 134 115
0.0232029054313898 0.43731677532196 3.55100011825562 255 133 114
0.0328606627881527 0.437068909406662 3.54900026321411 252 129 110
0.0425193756818771 0.436943620443344 3.54800009727478 254 131 114
0.0520106852054596 0.435463100671768 3.53600025177002 252 126 112
0.0616804622113705 0.43570613861084 3.53800010681152 250 127 110
0.0712399780750275 0.435209810733795 3.53400015830994 250 127 108
0.0811664238572121 0.436806410551071 3.54700016975403 253 132 113
0.0907536745071411 0.436432063579559 3.54400014877319 255 135 114
0.100494243204594 0.436796098947525 3.54700016975403 251 130 111
0.110281839966774 0.437282681465149 3.55100011825562 254 131 112
0.12015837430954 0.438015043735504 3.55700016021729 252 131 114
0.129738613963127 0.437638580799103 3.55400013923645 254 133 119
0.138909727334976 0.436030179262161 3.54100012779236 233 119 105
0.147883653640747 0.434051901102066 3.52500009536743 239 126 115
0.15752936899662 0.434166491031647 3.52600026130676 253 150 138
-0.169918358325958 0.426619589328766 3.54300022125244 198 109 97
-0.159318536520004 0.424099981784821 3.5220000743866 243 127 110
-0.149597734212875 0.423747271299362 3.51900005340576 246 125 106
-0.140290588140488 0.424598187208176 3.52600026130676 253 132 113
-0.130907744169235 0.425328254699707 3.53200006484985 253 130 111
-0.121594704687595 0.426419019699097 3.54100012779236 248 125 106
-0.111757971346378 0.42570298910141 3.53500008583069 254 131 112
-0.101895712316036 0.42474552989006 3.52700018882751 255 132 113
-0.0919981896877289 0.423426240682602 3.51600027084351 249 126 107
-0.0826056152582169 0.424394488334656 3.52400016784668 248 125 106
-0.0730862841010094 0.424880564212799 3.52800011634827 247 121 105
-0.0635448768734932 0.425366103649139 3.53200006484985 253 127 113
-0.0538440197706223 0.424767196178436 3.52700018882751 254 128 114
-0.0443708822131157 0.426094681024551 3.53800010681152 252 126 112
-0.0347492806613445 0.42633780837059 3.54000020027161 252 126 112
-0.0250528212636709 0.425496429204941 3.53300023078918 253 127 111
-0.0154293468222022 0.42561799287796 3.53400015830994 249 126 109
-0.00581021048128605 0.426461637020111 3.54100012779236 252 129 112
0.0038405938539654 0.426582127809525 3.54200005531311 255 132 113
0.0134549317881465 0.425377279520035 3.53200006484985 251 128 109
0.0230343174189329 0.424533188343048 3.52500009536743 253 128 109
0.0325939878821373 0.423929512500763 3.52000021934509 251 126 107
0.0421622283756733 0.423686504364014 3.51800012588501 250 124 108
0.0517929680645466 0.424045205116272 3.52100014686584 250 124 108
0.0615444742143154 0.425125986337662 3.53000020980835 250 127 110
0.0711633414030075 0.425122231245041 3.53000020980835 250 127 108
0.0808048397302628 0.425238460302353 3.5310001373291 255 132 113
0.0903490334749222 0.42487233877182 3.52800011634827 251 128 109
0.0999898910522461 0.424987524747849 3.5290002822876 252 129 110
0.109542638063431 0.424740880727768 3.52700018882751 249 126 107
0.119219191372395 0.424975335597992 3.5290002822876 253 128 109
0.128760188817978 0.424727618694305 3.52700018882751 252 129 110
0.138054415583611 0.423756867647171 3.51900005340576 252 132 113
0.146968886256218 0.421822279691696 3.50300025939941 251 133 116
0.156510531902313 0.421813875436783 3.50300025939941 251 133 118
0.166952222585678 0.424092829227448 3.5220000743866 243 122 109
0.176895275712013 0.424926221370697 3.5290002822876 245 128 108
0.186453029513359 0.424795836210251 3.52800011634827 235 120 110
0.196115791797638 0.424905747175217 3.5290002822876 237 129 121
-0.178563699126244 0.414625823497772 3.52300024032593 234 131 119
-0.168344914913177 0.413105189800262 3.51000022888184 242 120 106
-0.158105835318565 0.411348581314087 3.49500012397766 248 123 104
-0.148670628666878 0.411592334508896 3.49700021743774 247 122 103
-0.13946270942688 0.412541717290878 3.50500011444092 250 125 106
-0.130433067679405 0.414196848869324 3.51900005340576 250 125 106
-0.120914570987225 0.414439111948013 3.52100014686584 253 128 109
-0.111384719610214 0.414680868387222 3.52300024032593 254 129 110
-0.10138127207756 0.41303876042366 3.5090000629425 250 124 108
-0.0915845856070518 0.411984652280808 3.50000023841858 255 129 113
-0.0820944458246231 0.41222482919693 3.50200009346008 253 127 111
-0.0726552605628967 0.412817597389221 3.507000207901 251 125 109
-0.0631885454058647 0.413409888744354 3.51200008392334 249 123 109
-0.0535721927881241 0.413059949874878 3.5090000629425 246 120 106
-0.0441225059330463 0.414122104644775 3.51800012588501 248 122 106
-0.0345744974911213 0.414595067501068 3.5220000743866 255 129 115
-0.0249549262225628 0.414243549108505 3.51900005340576 254 128 114
-0.015355977229774 0.414009273052216 3.51700019836426 251 125 109
-0.00578099628910422 0.414716184139252 3.52300024032593 250 124 108
0.00382345751859248 0.415069371461868 3.52600026130676 249 124 105
0.0133985327556729 0.414009422063828 3.51700019836426 251 126 107
0.0229048952460289 0.412595808506012 3.50500011444092 253 128 109
0.0323642902076244 0.411417156457901 3.49500012397766 251 126 107
0.0419248566031456 0.411768227815628 3.4980001449585 249 123 107
0.0514721982181072 0.411883383989334 3.49900007247925 253 127 111
0.0612863339483738 0.413763731718063 3.51500010490417 250 124 108
0.0708447098731995 0.413642406463623 3.51400017738342 255 133 114
0.0802829340100288 0.412932008504868 3.50800013542175 252 129 110
0.0897393673658371 0.412456512451172 3.50400018692017 249 124 105
0.0992303416132927 0.412215918302536 3.50200009346008 255 130 111
0.108834281563759 0.412445664405823 3.50400018692017 251 126 107
0.118279777467251 0.412086367607117 3.50100016593933 250 125 105
0.127891048789024 0.412315040826797 3.50300025939941 249 124 104
0.137081146240234 0.411248505115509 3.49400019645691 255 132 112
0.146431490778923 0.410770058631897 3.49000024795532 251 126 106
0.156161621212959 0.411350309848785 3.49500012397766 248 123 103
0.166060626506805 0.412283152341843 3.50300025939941 249 122 103
0.176353499293327 0.41403928399086 3.51800012588501 255 130 111
0.18619892001152 0.414617985486984 3.52300024032593 246 124 110
0.196348756551743 0.415784567594528 3.53300023078918 247 127 118
-0.197033002972603 0.40353387594223 3.51000022888184 201 105 96
-0.186833083629608 0.402164429426193 3.4980001449585 242 117 107
-0.177255362272263 0.402059078216553 3.49700021743774 251 124 112
-0.167298719286919 0.40103343129158 3.48800015449524 250 122 106
-0.157571449875832 0.400467187166214 3.4830002784729 248 123 104
-0.148040875792503 0.400360316038132 3.48200011253357 242 117 98
-0.138952910900116 0.401517748832703 3.49200010299683 247 122 103
-0.129513412714005 0.401754885911942 3.49400019645691 248 122 106
-0.120337270200253 0.402911424636841 3.50400018692017 249 123 109
-0.110884852707386 0.403262585401535 3.507000207901 250 124 110
-0.101242296397686 0.402923256158829 3.50400018692017 248 122 108
-0.0912231802940369 0.400858581066132 3.48600006103516 252 126 112
-0.0816300287842751 0.400403261184692 3.48200011253357 250 125 106
-0.0723069906234741 0.40132737159729 3.49000024795532 246 121 102
-0.0630480274558067 0.402940928936005 3.50400018692017 250 125 106
-0.0534682273864746 0.402714014053345 3.50200009346008 245 120 101
-0.0438740476965904 0.402256667613983 3.4980001449585 248 123 104
-0.034330952912569 0.402143806219101 3.49700021743774 249 124 105
-0.0247718971222639 0.401685416698456 3.49300026893616 250 125 106
-0.0152345513924956 0.401226490736008 3.48900008201599 247 122 103
-0.00573043851181865 0.401572018861771 3.49200010299683 250 125 106
0.00379547034390271 0.402492046356201 3.50000023841858 247 122 103
0.0133344940841198 0.402491599321365 3.50000023841858 246 121 102
0.0227950401604176 0.401110649108887 3.48800015449524 254 129 110
0.032227136194706 0.400189191102982 3.48000025749207 248 123 104
0.0417473502457142 0.400532245635986 3.4830002784729 250 125 106
0.051254328340292 0.400644689798355 3.48400020599365 251 126 107
0.0608886182308197 0.401561617851257 3.49200010299683 254 129 110
0.0704453065991402 0.401788085699081 3.49400019645691 254 129 110
0.0798982083797455 0.401439100503922 3.49100017547607 252 127 108
0.0891551598906517 0.400284618139267 3.48100018501282 249 124 105
0.098583959043026 0.400049597024918 3.47900009155273 252 127 108
0.108063615858555 0.400044053792953 3.47900009155273 250 123 104
0.117610432207584 0.400268018245697 3.48100018501282 250 123 104
0.126948654651642 0.399801552295685 3.47700023651123 248 121 102
0.136343061923981 0.399564564228058 3.47500014305115 249 122 102
0.145600184798241 0.398982167243958 3.47000026702881 248 121 101
0.155097588896751 0.399089127779007 3.47100019454956 246 121 102
0.165216192603111 0.400690317153931 3.4850001335144 252 127 108
0.175560846924782 0.402635812759399 3.50200009346008 249 126 107
0.186367437243462 0.405385613441467 3.52600026130676 243 127 112
0.196915000677109 0.407329916954041 3.54300022125244 159 62 53
-0.20471853017807 0.390388488769531 3.47800016403198 229 125 117
-0.195134624838829 0.390174299478531 3.4760000705719 235 115 106
-0.186095044016838 0.391082167625427 3.48400020599365 245 119 105
-0.17620013654232 0.390193521976471 3.4760000705719 244 118 102
-0.166683942079544 0.390090197324753 3.47500014305115 249 124 105
-0.156629636883736 0.388639271259308 3.46200013160706 248 123 104
-0.147580981254578 0.389657557010651 3.47100019454956 252 122 104
-0.138442948460579 0.390563130378723 3.47900009155273 253 126 107
-0.128927156329155 0.390457838773727 3.47800016403198 252 126 110
-0.119347654283047 0.390127539634705 3.47500014305115 250 123 113
-0.109878897666931 0.390133529901505 3.47500014305115 248 121 112
-0.100611977279186 0.390924960374832 3.48200011253357 249 122 112
-0.0908878147602081 0.389919519424438 3.47300004959106 250 123 111
-0.0814233645796776 0.389924079179764 3.47300004959106 251 126 107
-0.0720207616686821 0.390264958143234 3.4760000705719 251 126 107
-0.0627814680337906 0.391728043556213 3.48900008201599 251 126 107
-0.0532725788652897 0.391731083393097 3.48900008201599 248 123 103
-0.0436129756271839 0.390386343002319 3.47700023651123 250 125 105
-0.034038245677948 0.389265596866608 3.46700024604797 254 129 109
-0.0245533585548401 0.388705790042877 3.46200013160706 248 123 103
-0.015139295719564 0.389268219470978 3.46700024604797 251 124 104
-0.00569463986903429 0.389605581760406 3.47000026702881 248 121 101
0.00376747641712427 0.390054762363434 3.4740002155304 252 125 105
0.0132513837888837 0.390503436326981 3.47800016403198 253 126 106
0.0227047577500343 0.390053361654282 3.4740002155304 251 126 107
0.0321177206933498 0.389378249645233 3.46800017356873 251 126 107
0.0415577851235867 0.389264017343521 3.46700024604797 254 129 110
0.0509775318205357 0.389037072658539 3.46500015258789 247 122 103
0.0605082362890244 0.389595478773117 3.47000026702881 246 121 102
0.0700054690241814 0.389816582202911 3.47200012207031 246 121 102
0.0793073624372482 0.38902673125267 3.46500015258789 243 118 99
0.0886476263403893 0.388573229312897 3.4610002040863 252 124 108
0.0979657471179962 0.388119250535965 3.45700025558472 247 119 103
0.107758715748787 0.389461070299149 3.46900010108948 249 119 101
0.117312572896481 0.389791965484619 3.47200012207031 249 117 99
0.126882329583168 0.390122383832932 3.47500014305115 248 116 98
0.135957881808281 0.388992875814438 3.46500015258789 251 116 98
0.14506234228611 0.388087421655655 3.45700025558472 254 120 102
0.154614210128784 0.388416409492493 3.46000027656555 244 120 96
0.164987817406654 0.390653252601624 3.48000025749207 249 127 104
0.175770580768585 0.393563032150269 3.50600028038025 218 119 118
-0.222899079322815 0.379595279693604 3.46600008010864 213 115 102
-0.21290697157383 0.378620624542236 3.45700025558472 237 124 106
-0.203316241502762 0.37830251455307 3.45400023460388 248 123 104
-0.194246366620064 0.378969758749008 3.46000027656555 247 122 102
-0.184929415583611 0.379198402166367 3.46200013160706 250 131 106
-0.175448805093765 0.379098057746887 3.4610002040863 243 121 97
-0.165541261434555 0.378011345863342 3.45100021362305 248 126 102
-0.156321004033089 0.378457725048065 3.45500016212463 245 126 99
-0.147248446941376 0.379341810941696 3.46300005912781 236 124 82
-0.138171523809433 0.380334973335266 3.47200012207031 230 126 84
-0.128229483962059 0.378917723894119 3.45900011062622 228 143 95
-0.109094060957432 0.377943962812424 3.45000004768372 225 137 93
-0.0999814867973328 0.379044830799103 3.46000027656555 242 116 102
-0.0903953015804291 0.378392428159714 3.45400023460388 250 122 106
-0.0810290202498436 0.378615945577621 3.45600008964539 247 122 102
-0.0717344284057617 0.37927719950676 3.46200013160706 250 126 103
-0.0625508055090904 0.380814462900162 3.4760000705719 243 118 98
-0.0530615895986557 0.380707889795303 3.47500014305115 250 126 103
-0.0434270948171616 0.379286140203476 3.46200013160706 249 125 102
-0.0338927507400513 0.378192573785782 3.4520001411438 253 126 106
-0.0244482550770044 0.377646297216415 3.44700026512146 248 121 101
-0.0150745818391442 0.378195077180862 3.4520001411438 250 123 103
-0.00565883098170161 0.377757400274277 3.44800019264221 248 121 101
0.00374164432287216 0.377976536750793 3.45000004768372 244 117 97
0.013179681263864 0.378962159156799 3.45900011062622 246 119 99
0.0226340480148792 0.379399448633194 3.46300005912781 252 125 106
0.0320267826318741 0.378850281238556 3.45800018310547 246 121 101
0.0413441844284534 0.377862334251404 3.44900012016296 249 124 104
0.0507742092013359 0.37807908654213 3.45100021362305 251 126 107
0.0602846890687943 0.378733545541763 3.45700025558472 248 123 104
0.0697066709399223 0.378730207681656 3.45700025558472 251 124 105
0.0788994878530502 0.377630829811096 3.44700026512146 252 125 106
0.0881399512290955 0.376969218254089 3.44100022315979 247 117 101
0.0976024195551872 0.377293080091476 3.44400024414063 248 118 102
0.107143007218838 0.377835541963577 3.44900012016296 247 115 97
0.117014542222023 0.379363477230072 3.46300005912781 251 119 101
0.126450732350349 0.379357218742371 3.46300005912781 251 115 100
0.135729491710663 0.378912359476089 3.45900011062622 250 114 99
0.144901975989342 0.378247886896133 3.45300006866455 253 118 105
0.154488131403923 0.378678441047668 3.45700025558472 243 123 102
0.165375605225563 0.382065922021866 3.48800015449524 244 134 112
-0.230202496051788 0.366740971803665 3.43400025367737 227 123 107
-0.221173748373985 0.367286115884781 3.43900012969971 238 123 103
-0.211808949708939 0.367296755313873 3.43900012969971 242 124 95
-0.20232567191124 0.3670933842659 3.4370002746582 233 112 85
-0.192964807152748 0.367103189229965 3.4370002746582 233 114 87
-0.183870315551758 0.36764657497406 3.44200015068054 251 139 107
-0.17408886551857 0.366800993680954 3.43400025367737 255 160 116
-0.146660566329956 0.368427246809006 3.44900012016296 255 237 149
-0.137422353029251 0.368861645460129 3.45300006866455 255 248 146
-0.127642810344696 0.367800086736679 3.44300007820129 255 245 119
-0.118089020252228 0.367272108793259 3.43800020217896 255 242 122
-0.0994375199079514 0.367603540420532 3.44100022315979 245 121 97
-0.0898241102695465 0.366646826267242 3.43200016021729 250 124 101
-0.0806345567107201 0.367398947477341 3.43900012969971 247 122 102
-0.0713858231902123 0.368043810129166 3.44500017166138 248 124 101
-0.0622300803661346 0.369436025619507 3.45800018310547 253 128 108
-0.0527741648256779 0.369225233793259 3.45600008964539 254 127 107
-0.043303869664669 0.368800312280655 3.4520001411438 249 120 100
-0.0338257551193237 0.368054449558258 3.44500017166138 249 120 100
-0.0243998505175114 0.367521673440933 3.44000005722046 248 119 99
-0.0150491520762444 0.368163704872131 3.44600009918213 249 119 101
-0.00565255573019385 0.367950588464737 3.44400024414063 251 121 103
0.00373749760910869 0.368164300918579 3.44600009918213 248 118 100
0.0131422495469451 0.368484348058701 3.44900012016296 255 123 105
0.0225502364337444 0.368590325117111 3.45000004768372 245 115 97
0.031861700117588 0.367520570755005 3.44000005722046 241 112 92
0.0412024408578873 0.36719822883606 3.4370002746582 244 117 97
0.0505708158016205 0.367195904254913 3.4370002746582 246 119 99
0.0599913038313389 0.367513597011566 3.44000005722046 249 122 102
0.0692867562174797 0.367082983255386 3.43600010871887 250 118 100
0.0783770307898521 0.365797281265259 3.42400026321411 245 113 95
0.087734580039978 0.365899920463562 3.42500019073486 239 107 89
0.0969555452466011 0.365467935800552 3.42100024223328 247 115 97
0.106775663793087 0.367172092199326 3.4370002746582 246 112 94
0.116479828953743 0.368234753608704 3.44700026512146 249 114 101
0.126201525330544 0.369190067052841 3.45600008964539 247 109 94
0.135697111487389 0.369397193193436 3.45800018310547 246 109 100
0.145412907004356 0.370137900114059 3.46500015258789 244 114 108
0.155479118227959 0.371625870466232 3.47900009155273 238 128 118
-0.247100532054901 0.354776591062546 3.40900015830994 213 119 111
-0.237680047750473 0.354580074548721 3.40700006484985 229 129 104
-0.210464239120483 0.355653196573257 3.41700005531311 255 227 124
-0.201099306344986 0.355559080839157 3.41600012779236 255 242 125
-0.19185134768486 0.355672687292099 3.41700005531311 255 248 122
-0.18254379928112 0.355681777000427 3.41700005531311 255 244 116
-0.173286259174347 0.35579451918602 3.41800022125244 255 245 117
-0.163926661014557 0.355698645114899 3.41700005531311 255 247 112
-0.15488862991333 0.356331020593643 3.42300009727478 255 247 111
-0.145859852433205 0.357067078351974 3.4300000667572 255 247 102
-0.136633187532425 0.357386320829391 3.43300008773804 255 250 105
-0.127055957913399 0.356768161058426 3.42700004577637 255 251 106
-0.117717027664185 0.356774121522903 3.42700004577637 255 246 110
-0.108504176139832 0.357196152210236 3.43100023269653 255 236 120
-0.0990956798195839 0.356993019580841 3.42900013923645 240 120 87
-0.0895406827330589 0.356164842844009 3.42100024223328 249 124 96
-0.0801696106791496 0.355960756540298 3.41900014877319 247 121 98
-0.0709542110562325 0.356485068798065 3.42400026321411 249 123 100
-0.0616752803325653 0.356800675392151 3.42700004577637 246 119 99
-0.0525171980261803 0.358052879571915 3.43900012969971 245 118 98
-0.0431429482996464 0.358055233955383 3.43900012969971 248 118 100
-0.0337783470749855 0.358161270618439 3.44000005722046 243 113 95
-0.0243301391601563 0.357121556997299 3.4300000667572 245 115 97
-0.0149887623265386 0.357330739498138 3.43200016021729 250 118 100
-0.00562657741829753 0.356914788484573 3.4280002117157 250 118 100
0.00372466933913529 0.357539564371109 3.43400025367737 248 116 98
0.0130628859624267 0.356914430856705 3.4280002117157 246 114 96
0.0224010217934847 0.35680940747261 3.42700004577637 247 115 97
0.0316502563655376 0.355766922235489 3.41700005531311 250 120 102
0.0410006977617741 0.356077432632446 3.42000007629395 252 122 104
0.050411481410265 0.356699883937836 3.42600011825562 249 120 100
0.0598373413085938 0.357217788696289 3.43100023269653 244 112 94
0.0689877346158028 0.356173455715179 3.42100024223328 245 113 95
0.0781062394380569 0.355232775211334 3.41200017929077 249 115 97
0.0872522369027138 0.354604035615921 3.4060001373291 246 112 94
0.0966769456863403 0.355120033025742 3.41100025177002 251 117 101
0.106066413223743 0.355427384376526 3.41400027275085 247 113 97
0.115843541920185 0.356879442930222 3.4280002117157 251 116 98
0.125842615962029 0.358747392892838 3.44600009918213 242 106 94
0.13601778447628 0.360823035240173 3.46600008010864 239 105 99
0.146301433444023 0.362898200750351 3.48600006103516 233 115 118
-0.247112214565277 0.34550416469574 3.40900015830994 230 116 101
-0.237412229180336 0.344907402992249 3.40300011634827 251 146 111
-0.227677002549171 0.344208836555481 3.39600014686584 255 251 144
-0.217914760112762 0.343408435583115 3.38800024986267 255 245 113
-0.209365576505661 0.344533503055573 3.39900016784668 255 249 109
-0.200343579053879 0.344948619604111 3.40300011634827 255 249 113
-0.190962180495262 0.344755202531815 3.40100026130676 255 246 115
-0.181964889168739 0.345270842313766 3.4060001373291 255 249 110
-0.172432705760002 0.344772458076477 3.40100026130676 255 252 109
-0.163358852267265 0.345185935497284 3.40500020980835 255 247 111
-0.153900593519211 0.344788014888763 3.40100026130676 255 248 109
-0.145058900117874 0.345808923244476 3.41100025177002 255 249 106
-0.135724365711212 0.345714300870895 3.41000008583069 255 249 104
-0.126617193222046 0.346227496862412 3.41500020027161 255 252 109
-0.117173135280609 0.34582781791687 3.41100025177002 255 247 107
-0.108003437519073 0.346238791942596 3.41500020027161 255 234 129
-0.0986958965659142 0.346243739128113 3.41500020027161 221 125 72
-0.0893879905343056 0.346248269081116 3.41500020027161 246 124 93
-0.0799390375614166 0.345643997192383 3.40900015830994 248 118 94
-0.0705431997776031 0.345140635967255 3.40400004386902 251 120 98
-0.0612643510103226 0.345143854618073 3.40400004386902 252 121 101
-0.0521685108542442 0.346363306045532 3.41600012779236 249 117 99
-0.0429192334413528 0.346872597932816 3.42100024223328 247 113 97
-0.0336327068507671 0.347280025482178 3.42500019073486 253 119 103
-0.0241965521126986 0.345861911773682 3.41100025177002 251 118 106
-0.0148977786302567 0.345862865447998 3.41100025177002 246 113 101
-0.00559730688109994 0.345761924982071 3.41000008583069 249 116 104
0.00370315765030682 0.346167594194412 3.41400027275085 244 111 99
0.0130063621327281 0.346065759658813 3.41300010681152 244 111 98
0.0222713798284531 0.345456510782242 3.40700006484985 243 111 93
0.0314758121967316 0.344542682170868 3.39800024032593 251 119 101
0.0408108793199062 0.345149278640747 3.40400004386902 251 119 101
0.0502226538956165 0.346059650182724 3.41300010681152 252 120 102
0.0595960840582848 0.346462517976761 3.41700005531311 246 111 98
0.0687692612409592 0.345749706029892 3.41000008583069 242 106 93
0.0778811201453209 0.344935059547424 3.40200018882751 246 110 95
0.0871283933520317 0.344829648733139 3.40100026130676 244 108 95
0.0963415205478668 0.344622433185577 3.39900016784668 248 114 98
0.105854079127312 0.345428705215454 3.40700006484985 244 108 96
0.115713998675346 0.347146987915039 3.42400026321411 241 105 92
0.126104354858398 0.350081324577332 3.45300006866455 243 111 105
0.137005522847176 0.35392764210701 3.49100017547607 236 121 121
-0.273592203855515 0.334518373012543 3.39200019836426 221 95 89
-0.264671266078949 0.334925085306168 3.39600014686584 239 106 93
-0.25550189614296 0.335035502910614 3.3970000743866 248 113 95
-0.246543720364571 0.335441499948502 3.40100026130676 251 117 99
-0.236725553870201 0.334663480520248 3.39300012588501 235 112 84
-0.226614832878113 0.333391845226288 3.38000011444092 255 248 139
-0.216960057616234 0.332711547613144 3.3730001449585 255 247 115
-0.208328142762184 0.333609133958817 3.382000207901 255 251 100
-0.199234321713448 0.333815813064575 3.3840000629425 255 251 102
-0.190128847956657 0.334022164344788 3.38600015640259 255 252 112
-0.181278884410858 0.334721297025681 3.39300012588501 255 247 102
-0.172288700938225 0.335222780704498 3.39800024032593 255 250 103
-0.16298271715641 0.335131913423538 3.3970000743866 255 250 105
-0.153319552540779 0.334251374006271 3.38800024986267 255 250 105
-0.144300237298012 0.334751605987549 3.39300012588501 255 249 104
-0.135054111480713 0.334758132696152 3.39300012588501 255 250 105
-0.125992864370346 0.335257560014725 3.39800024032593 255 250 103
-0.116697750985622 0.335164576768875 3.3970000743866 255 249 109
-0.10756579041481 0.335564523935318 3.40100026130676 255 248 134
-0.0982670709490776 0.335470676422119 3.40000009536743 208 126 66
-0.0889472514390945 0.335277765989304 3.39800024032593 239 122 88
-0.0794972777366638 0.334492325782776 3.39000010490417 247 114 94
-0.0700699090957642 0.333607822656631 3.38100004196167 249 116 96
-0.0608713068068028 0.333709627389908 3.382000207901 250 117 97
-0.0518350042402744 0.334896296262741 3.39400005340576 246 113 93
-0.0427079908549786 0.335885286331177 3.40400004386902 250 116 100
-0.03340844810009 0.335689753293991 3.40200018882751 249 115 99
-0.0240983907133341 0.33519771695137 3.3970000743866 244 111 99
-0.0147849284112453 0.334014564752579 3.38500022888184 246 111 99
-0.00555325346067548 0.333817690610886 3.38300013542175 247 111 102
0.00367946992628276 0.334705799818039 3.39200019836426 247 112 100
0.0129345757886767 0.334902763366699 3.39400005340576 247 112 99
0.0221482384949923 0.334309905767441 3.38800024986267 252 118 102
0.0313476249575615 0.333913892507553 3.3840000629425 251 119 103
0.0406090021133423 0.334208220243454 3.38700008392334 249 115 99
0.0499454513192177 0.334896832704544 3.39400005340576 243 109 93
0.0591803267598152 0.334795564413071 3.39300012588501 244 108 96
0.0683893635869026 0.334595233201981 3.39100027084351 247 111 99
0.0774956420063972 0.333999752998352 3.38500022888184 245 109 96
0.0867994874715805 0.334291905164719 3.38800024986267 248 112 99
0.0962327271699905 0.334978252649307 3.39500021934509 246 110 95
0.106014475226402 0.336650878190994 3.41200017929077 244 111 98
0.116091251373291 0.33891499042511 3.43500018119812 240 116 110
-0.281418979167938 0.323648124933243 3.37500023841858 219 116 115
-0.272797793149948 0.324331611394882 3.382000207901 244 110 104
-0.26413756608963 0.325014799833298 3.38900017738342 245 107 92
-0.254836469888687 0.324930399656296 3.38800024986267 245 107 94
-0.245322421193123 0.324557900428772 3.3840000629425 247 112 94
-0.235689699649811 0.323993176221848 3.37800025939941 239 111 85
-0.226088732481003 0.32342803478241 3.37200021743774 255 242 141
-0.216712638735771 0.323150187730789 3.36900019645691 255 247 119
-0.207475230097771 0.32306382060051 3.36800026893616 255 251 111
-0.198360249400139 0.323168873786926 3.36900019645691 255 251 97
-0.189182937145233 0.323177635669708 3.36900019645691 255 253 100
-0.180592611432076 0.324241191148758 3.38000011444092 255 252 99
-0.171890959143639 0.325208485126495 3.39000010490417 255 251 102
-0.162414446473122 0.324736386537552 3.38500022888184 255 253 104
-0.15273828804493 0.323784232139587 3.37500023841858 255 252 103
-0.143456295132637 0.323599100112915 3.3730001449585 255 251 102
-0.134503081440926 0.32418105006218 3.37900018692017 255 251 102
-0.125294178724289 0.324187010526657 3.37900018692017 255 249 102
-0.116084769368172 0.324192523956299 3.37900018692017 255 249 109
-0.106938175857067 0.324389487504959 3.38100004196167 255 245 121
-0.0883754715323448 0.323918730020523 3.37600016593933 246 112 96
-0.0791023075580597 0.323634743690491 3.3730001449585 249 111 98
-0.0697622895240784 0.322966545820236 3.36600017547607 246 111 93
-0.0606761462986469 0.323449283838272 3.37100005149841 250 115 97
-0.0515625104308128 0.323931604623795 3.37600016593933 247 112 94
-0.0424214042723179 0.324413537979126 3.38100004196167 250 114 99
-0.0332626961171627 0.32499098777771 3.38700008392334 249 113 98
-0.0239576287567616 0.324032783508301 3.37700009346008 247 112 99
-0.0146938906982541 0.322786271572113 3.36400008201599 248 112 100
-0.00552232237532735 0.322786748409271 3.36400008201599 250 114 102
0.00365469185635448 0.323266595602036 3.36900019645691 243 107 94
0.0128780119121075 0.324225753545761 3.37900018692017 244 108 95
0.0220773573964834 0.32403302192688 3.37700009346008 247 111 96
0.0313305631279945 0.324511528015137 3.382000207901 250 112 99
0.0405629388988018 0.324605852365494 3.38300013542175 240 104 89
0.0496681667864323 0.323836147785187 3.37500023841858 243 107 94
0.0587470233440399 0.323161989450455 3.36800026893616 245 106 95
0.0678883194923401 0.322967201471329 3.36600017547607 250 111 100
0.0772474035620689 0.323731422424316 3.37400007247925 243 104 93
0.086803525686264 0.325070977210999 3.38800024986267 243 104 95
0.0967190936207771 0.32736948132515 3.41200017929077 242 106 94
0.106796212494373 0.329763442277908 3.4370002746582 236 118 112
-0.288549721240997 0.312217324972153 3.3510000705719 249 114 112
-0.280513972043991 0.313440799713135 3.36400008201599 247 107 102
-0.271680414676666 0.313825368881226 3.36800026893616 255 117 104
-0.263057917356491 0.314489156007767 3.37500023841858 251 113 100
-0.253268003463745 0.313754856586456 3.36700010299683 253 114 103
-0.243955761194229 0.313579320907593 3.36500024795532 247 108 97
-0.234513908624649 0.313216924667358 3.36100006103516 250 113 95
-0.215692967176437 0.312491029500961 3.35300016403198 255 246 120
-0.206252336502075 0.312034279108047 3.34800004959106 255 250 117
-0.1971325725317 0.312043100595474 3.34800004959106 255 251 97
-0.188292860984802 0.312517613172531 3.35300016403198 255 252 95
-0.179478615522385 0.313084989786148 3.35900020599365 255 253 99
-0.170783087611198 0.313931584358215 3.36800026893616 255 254 101
-0.161366134881973 0.313472896814346 3.36300015449524 255 252 101
-0.151749476790428 0.312547713518143 3.35300016403198 255 252 101
-0.142484486103058 0.312274605035782 3.35000014305115 255 252 103
-0.133713006973267 0.31311970949173 3.35900020599365 255 251 100
-0.124669432640076 0.313405096530914 3.36200022697449 255 250 97
-0.115505963563919 0.313410431146622 3.36200022697449 255 250 103
-0.106278777122498 0.313228964805603 3.3600001335144 255 242 120
-0.0972066074609756 0.313513189554214 3.36300015449524 255 234 143
-0.0879868045449257 0.313330858945847 3.36100006103516 243 111 95
-0.0786602944135666 0.312682002782822 3.35400009155273 249 110 99
-0.069454550743103 0.312405645847321 3.3510000705719 255 118 100
-0.060318898409605 0.312408536672592 3.3510000705719 244 109 91
-0.0511371828615665 0.312131375074387 3.34800004959106 243 108 90
-0.0420845523476601 0.312692850828171 3.35400009155273 250 112 97
-0.0329793989658356 0.313067466020584 3.3580002784729 248 112 97
-0.023838110268116 0.313255161046982 3.3600001335144 245 109 96
-0.014611566439271 0.311857610940933 3.34500026702881 244 108 95
-0.00548809906467795 0.311671584844589 3.34300017356873 248 110 97
0.00363424583338201 0.31232425570488 3.35000014305115 251 113 100
0.0127947479486465 0.312976509332657 3.35700011253357 243 105 92
0.0219737570732832 0.31334862112999 3.36100006103516 246 108 93
0.0311930198222399 0.313906818628311 3.36700010299683 246 108 95
0.0404568687081337 0.314557820558548 3.37400007247925 239 99 84
0.0495232567191124 0.313716739416122 3.36500024795532 246 108 93
0.0585054829716682 0.312688797712326 3.35400009155273 240 101 90
0.0675888583064079 0.312406271696091 3.3510000705719 248 111 93
0.0771822184324265 0.314267575740814 3.37100005149841 241 107 98
0.0870124325156212 0.316594541072845 3.39600014686584 238 108 100
0.0972620993852615 0.319853335618973 3.43100023269653 234 115 120
-0.297059208154678 0.302454113960266 3.34400010108948 232 132 127
-0.287700802087784 0.302194952964783 3.34100008010864 240 108 109
-0.279191613197327 0.302839934825897 3.34800004959106 245 107 106
-0.270643264055252 0.30348464846611 3.35500025749207 247 108 97
-0.261822044849396 0.303857684135437 3.35900020599365 248 109 98
-0.251924842596054 0.302963882684708 3.3490002155304 248 106 89
-0.242733687162399 0.302883863449097 3.34800004959106 252 109 97
-0.233616888523102 0.302893966436386 3.34800004959106 244 113 81
-0.214865982532501 0.302189260721207 3.34000015258789 255 242 133
-0.20539878308773 0.301655352115631 3.33400011062622 255 251 106
-0.196552306413651 0.302025884389877 3.33800005912781 255 250 93
-0.187739476561546 0.302486538887024 3.34300017356873 255 252 91
-0.178631469607353 0.302494376897812 3.34300017356873 255 250 89
-0.169421374797821 0.302320897579193 3.34100008010864 255 250 97
-0.159885659813881 0.301513582468033 3.33200025558472 255 251 100
-0.150896191596985 0.301701277494431 3.33400011062622 255 249 103
-0.141682580113411 0.301436126232147 3.33100008964539 255 248 108
-0.132882878184319 0.302075535058975 3.33800005912781 255 249 114
-0.123821996152401 0.302171587944031 3.33900022506714 255 252 124
-0.114926964044571 0.30271977186203 3.34500026702881 255 245 130
-0.0875979959964752 0.302823513746262 3.34600019454956 243 107 95
-0.0784996002912521 0.302917629480362 3.34700012207031 250 111 100
-0.0692710876464844 0.302468329668045 3.34200024604797 249 110 99
-0.0599615462124348 0.301475584506989 3.33100008964539 247 108 97
-0.050879780203104 0.301477998495102 3.33100008964539 244 106 93
-0.0417852625250816 0.301389515399933 3.33000016212463 249 111 98
-0.0328924655914307 0.303110837936401 3.3490002155304 247 109 96
-0.0237043630331755 0.302387982606888 3.34100008010864 248 110 97
-0.0145423198118806 0.30130273103714 3.32900023460388 249 111 98
-0.00545058259740472 0.30048856139183 3.32000017166138 245 106 95
0.00361379375681281 0.301484197378159 3.33100008964539 249 110 99
0.0127305202186108 0.302298456430435 3.34000015258789 244 105 94
0.0218962766230106 0.303112268447876 3.3490002155304 248 108 95
0.03102763928473 0.30311107635498 3.3490002155304 250 110 97
0.0402787923812866 0.304014623165131 3.35900020599365 244 104 91
0.0492163747549057 0.302655041217804 3.34400010108948 241 103 90
0.0582987479865551 0.302471697330475 3.34200024604797 244 104 89
0.0675716772675514 0.303193002939224 3.35000014305115 249 112 94
0.0775977745652199 0.306719481945038 3.38900017738342 243 116 106
0.0877593532204628 0.309974044561386 3.42500019073486 231 121 123
-0.26089745759964 0.293663084506989 3.34700012207031 246 109 101
-0.250656455755234 0.292357474565506 3.33200025558472 247 107 94
-0.241366282105446 0.292104363441467 3.32900023460388 249 110 92
-0.232440367341042 0.292289614677429 3.33100008964539 247 112 86
-0.214296013116837 0.292308062314987 3.33100008964539 255 247 121
-0.205222606658936 0.292316794395447 3.33100008964539 255 249 104
-0.196501716971397 0.292851716279984 3.33700013160706 255 252 99
-0.187354281544685 0.292771965265274 3.3360002040863 255 253 104
-0.177890941500664 0.292165279388428 3.32900023460388 255 249 99
-0.168312937021255 0.291294872760773 3.31900024414063 255 255 113
-0.159220650792122 0.29121395945549 3.31800007820129 255 254 120
-0.150404751300812 0.291659295558929 3.32300019264221 255 233 122
-0.123382270336151 0.292027711868286 3.3270001411438 221 132 50
-0.114416509866714 0.292296051979065 3.33000016212463 225 110 55
-0.105402298271656 0.292476266622543 3.33200025558472 243 118 81
-0.0963189452886581 0.292480528354645 3.33200025558472 247 118 90
-0.0874184966087341 0.293098866939545 3.33900022506714 244 105 94
-0.0781746208667755 0.292575716972351 3.33300018310547 247 105 98
-0.0690045952796936 0.292227685451508 3.32900023460388 247 106 97
-0.059676107019186 0.291001468896866 3.31500005722046 246 107 96
-0.05068339407444 0.291267156600952 3.31800007820129 243 105 92
-0.0417494177818298 0.292059183120728 3.3270001411438 241 103 90
-0.0327563770115376 0.29276305437088 3.33500027656555 248 108 95
-0.0235421936959028 0.291271895170212 3.31800007820129 247 107 94
-0.0144905243068933 0.291184961795807 3.31700015068054 243 100 88
-0.00543275848031044 0.290483087301254 3.30900025367737 246 103 94
0.00360527075827122 0.2917121052742 3.32300019264221 241 98 89
0.0126929525285959 0.292326271533966 3.33000016212463 248 105 94
0.0218122210353613 0.292852252721787 3.3360002040863 243 100 88
0.0308807380497456 0.292587786912918 3.33300018310547 245 104 93
0.04002870246768 0.293025195598602 3.33800005912781 246 106 93
0.0491596199572086 0.293198853731155 3.34000015258789 243 100 91
0.0585105940699577 0.294425547122955 3.35400009155273 245 105 100
0.0680990442633629 0.296354055404663 3.37600016593933 237 115 108
-0.240723505616188 0.282277464866638 3.32000017166138 215 111 103
-0.231472879648209 0.282031834125519 3.31700015068054 236 109 100
-0.222573027014732 0.282211035490036 3.31900024414063 238 122 97
-0.213661432266235 0.282389849424362 3.32100009918213 255 252 151
-0.204799726605415 0.282653421163559 3.32400012016296 255 246 143
-0.196156457066536 0.283256739377975 3.33100008964539 255 237 139
-0.177524194121361 0.282506555318832 3.32200026512146 254 151 107
-0.16796487569809 0.281663179397583 3.3120002746582 245 124 87
-0.159227222204208 0.282180100679398 3.31800007820129 242 113 83
-0.150139406323433 0.282101392745972 3.31700015068054 232 96 83
-0.141013905405998 0.281937211751938 3.31500005722046 246 106 93
-0.131620109081268 0.281177371740341 3.30600023269653 245 103 86
-0.122794017195702 0.281607806682587 3.31100010871887 253 112 93
-0.11387149989605 0.281867831945419 3.31400012969971 246 107 88
-0.104963809251785 0.2822125852108 3.31800007820129 248 111 93
-0.0959182530641556 0.28221669793129 3.31800007820129 250 113 95
-0.0870294123888016 0.2827308177948 3.32400012016296 251 111 98
-0.0778495073318481 0.28230893611908 3.31900024414063 252 109 98
-0.0687172785401344 0.281971722841263 3.31500005722046 247 101 94
-0.0594985783100128 0.281123757362366 3.3050000667572 249 108 99
-0.050654973834753 0.282061725854874 3.31600022315979 248 108 95
-0.0416382327675819 0.282233744859695 3.31800007820129 249 109 96
-0.0325907692313194 0.282235264778137 3.31800007820129 251 108 96
-0.0234509408473969 0.281130611896515 3.3050000667572 247 105 90
-0.0143950209021568 0.280280768871307 3.29500007629395 241 98 86
-0.00541328405961394 0.280451327562332 3.29700016975403 242 96 88
0.00358589226379991 0.281131863594055 3.3050000667572 246 100 92
0.0126134380698204 0.281471788883209 3.30900025367737 252 109 98
0.0216758251190186 0.281981438398361 3.31500005722046 242 99 88
0.0306967217475176 0.281810224056244 3.31300020217896 250 108 91
0.0398744828999043 0.282829523086548 3.32500004768372 248 108 93
0.0491764023900032 0.284188628196716 3.34100008010864 240 100 93
0.0589317493140697 0.287333697080612 3.37800025939941 235 112 117
-0.221642941236496 0.272022604942322 3.3050000667572 218 131 121
-0.212511792778969 0.271866500377655 3.3030002117157 212 123 83
-0.203945264220238 0.272450834512711 3.31000018119812 206 112 71
-0.195163145661354 0.272787928581238 3.31400012969971 218 114 79
-0.185853004455566 0.272383838891983 3.30900025367737 237 115 91
-0.176569372415543 0.27197939157486 3.30400013923645 246 118 92
-0.167261585593224 0.27149224281311 3.29800009727478 248 113 94
-0.158465772867203 0.271828025579453 3.30200004577637 247 109 94
-0.149421200156212 0.271751761436462 3.30100011825562 250 107 98
-0.140338957309723 0.271592885255814 3.29900026321411 248 105 96
-0.130948573350906 0.270775020122528 3.28900027275085 249 107 90
-0.121908888220787 0.270615369081497 3.28700017929077 252 110 93
-0.113188870251179 0.271196365356445 3.29400014877319 247 105 88
-0.104430243372917 0.271777033805847 3.30100011825562 250 108 91
-0.0954306796193123 0.271781027317047 3.30100011825562 249 107 92
-0.0865092873573303 0.272031664848328 3.30400013923645 251 108 97
-0.0773835405707359 0.271623283624649 3.29900026321411 252 106 98
-0.0683676674962044 0.271543860435486 3.29800009727478 251 103 96
-0.0593749843537807 0.271546423435211 3.29800009727478 249 101 94
-0.0504584386944771 0.271960318088531 3.3030002117157 248 100 92
-0.0414767824113369 0.272126853466034 3.3050000667572 252 105 94
-0.0324054695665836 0.271634310483933 3.29900026321411 248 103 91
-0.0233383644372225 0.270812034606934 3.28900027275085 246 102 87
-0.0143519192934036 0.270483434200287 3.28500008583069 245 101 86
-0.00539380125701427 0.270483791828156 3.28500008583069 247 102 90
0.00357084814459085 0.270977884531021 3.29100012779236 251 106 95
0.0125567708164454 0.271224588155746 3.29400014877319 249 106 97
0.0215524677187204 0.271388590335846 3.29600024223328 245 98 94
0.0306609142571688 0.272457957267761 3.30900025367737 242 100 93
0.0399720519781113 0.274432629346848 3.33300018310547 240 102 98
0.0496199950575829 0.277559667825699 3.37100005149841 228 109 116
-0.184793010354042 0.261860758066177 3.29000020027161 201 117 117
-0.175721138715744 0.261708438396454 3.28800010681152 216 107 101
-0.166862353682518 0.261874169111252 3.29000020027161 238 108 100
-0.157896056771278 0.261880427598953 3.29000020027161 246 115 105
-0.148657500743866 0.261408716440201 3.28400015830994 247 114 102
-0.139706328511238 0.261414259672165 3.28400015830994 249 113 100
-0.130316659808159 0.26054385304451 3.27300024032593 249 109 96
-0.121468581259251 0.260707885026932 3.27500009536743 251 109 94
-0.112574778497219 0.260792046785355 3.27600026130676 249 105 88
-0.103959806263447 0.261592328548431 3.28600025177002 246 102 87
-0.0948851257562637 0.261277705430985 3.28200006484985 250 106 91
-0.0861723050475121 0.261997699737549 3.29100012779236 247 102 90
-0.0771520212292671 0.261841684579849 3.28900027275085 246 99 88
-0.0682459771633148 0.262083321809769 3.29200005531311 248 100 92
-0.0591252669692039 0.261448889970779 3.28400015830994 248 98 92
-0.0501548945903778 0.261371433734894 3.28300023078918 251 101 95
-0.0412148684263229 0.261452823877335 3.28400015830994 242 94 86
-0.0322790518403053 0.261613488197327 3.28600025177002 247 100 88
-0.0232612285763025 0.26097759604454 3.27800011634827 253 106 94
-0.0142825804650784 0.260261833667755 3.26900005340576 247 103 88
-0.00536774238571525 0.260262191295624 3.26900005340576 247 102 90
0.00355362868867815 0.260739952325821 3.27500009536743 250 105 93
0.012492461130023 0.260898858308792 3.27700018882751 248 102 94
0.021527161821723 0.262092411518097 3.29200005531311 245 98 94
0.0307918526232243 0.26455944776535 3.32300019264221 241 106 102
0.0403933972120285 0.268140733242035 3.36800026893616 225 121 124
-0.157086104154587 0.251612812280655 3.27300024032593 223 138 128
-0.147893562912941 0.251157253980637 3.26700019836426 231 111 102
-0.138860777020454 0.250931948423386 3.26400017738342 243 116 106
-0.129923418164253 0.250860065221787 3.26300024986267 246 109 100
-0.121399015188217 0.251633584499359 3.27300024032593 251 110 99
-0.112407229840755 0.251484155654907 3.27100014686584 248 100 88
-0.103552475571632 0.251642048358917 3.27300024032593 247 97 83
-0.0946285575628281 0.251645743846893 3.27300024032593 250 104 87
-0.085913747549057 0.252264231443405 3.2810001373291 249 101 87
-0.0768734589219093 0.251959711313248 3.27700018882751 254 106 94
-0.0678339526057243 0.251578003168106 3.2720000743866 252 101 93
-0.0587314330041409 0.250811487436295 3.26200008392334 241 89 83
-0.0498054213821888 0.250659763813019 3.26000022888184 252 100 96
-0.0409654304385185 0.250969022512436 3.26400017738342 253 103 99
-0.0320936404168606 0.251201093196869 3.26700019836426 251 103 95
-0.023184061050415 0.251202136278152 3.26700019836426 248 100 92
-0.0142525443807244 0.250818371772766 3.26200008392334 248 101 90
-0.0053515275940299 0.250588059425354 3.2590000629425 249 100 90
0.00354182813316584 0.250972539186478 3.26400017738342 247 100 89
0.0124891279265285 0.251894950866699 3.27600026130676 243 102 93
0.0216653179377317 0.254739284515381 3.31300020217896 239 113 107
-0.138610601425171 0.241595774888992 3.25800013542175 218 135 125
-0.129569828510284 0.241303980350494 3.25400018692017 237 109 103
