1.04572772979736 -0.303362667560577 2.58000016212463 255 152 131
1.05271399021149 -0.303359717130661 2.58000016212463 255 157 141
1.05888080596924 -0.303122252225876 2.57800006866455 249 149 134
0.683417916297913 -0.314268380403519 2.60600018501282 224 112 106
0.68807053565979 -0.31316152215004 2.59700012207031 245 107 102
0.693209171295166 -0.312296122312546 2.59000015258789 249 107 100
0.698579609394073 -0.311551451683044 2.58400011062622 251 109 102
0.705555200576782 -0.311530411243439 2.58400011062622 247 105 98
0.712254464626312 -0.311388939619064 2.58300018310547 247 106 95
0.719782888889313 -0.311609208583832 2.58500003814697 250 109 98
0.727040529251099 -0.311709105968475 2.5860002040863 255 118 105
0.735438287258148 -0.312291234731674 2.59100008010864 251 113 100
0.742143213748932 -0.312150299549103 2.59000015258789 252 114 99
0.748263776302338 -0.311768531799316 2.58700013160706 248 110 97
0.753783762454987 -0.31114599108696 2.58200001716614 255 122 109
0.760160326957703 -0.310885220766068 2.58000016212463 255 124 108
0.767714977264404 -0.311106592416763 2.58200001716614 255 126 110
0.774379909038544 -0.310966730117798 2.58100008964539 253 119 103
0.781644523143768 -0.311068028211594 2.58200001716614 255 122 106
0.789219915866852 -0.311290055513382 2.58400011062622 255 126 110
0.797730088233948 -0.311873644590378 2.58900022506714 255 124 106
0.804712772369385 -0.311855107545853 2.58900022506714 255 126 108
0.811695516109467 -0.311836868524551 2.58900022506714 255 126 108
0.819310426712036 -0.312059730291367 2.59100008010864 255 126 108
0.826617121696472 -0.312162429094315 2.59200000762939 255 128 110
0.832964420318604 -0.311904162168503 2.59000015258789 255 130 111
0.838652312755585 -0.3114053606987 2.5860002040863 255 134 115
0.844972610473633 -0.311147660017014 2.58400011062622 255 133 114
0.852271437644959 -0.311251610517502 2.58500003814697 255 135 116
0.859243392944336 -0.311235427856445 2.58500003814697 255 135 115
0.865210175514221 -0.310858428478241 2.58200001716614 253 131 110
0.872174441814423 -0.310842931270599 2.58200001716614 255 131 111
0.878798544406891 -0.310707449913025 2.58100008964539 255 134 115
0.885760843753815 -0.310692697763443 2.58100008964539 255 139 122
0.892377614974976 -0.310557961463928 2.58000016212463 255 135 116
0.900383770465851 -0.310905069112778 2.58300018310547 255 134 115
0.908055305480957 -0.311132162809372 2.58500003814697 255 141 121
0.915384411811829 -0.311239361763 2.5860002040863 255 143 122
0.921649396419525 -0.310985833406448 2.58400011062622 255 145 121
0.928623020648956 -0.31097349524498 2.58400011062622 255 147 127
0.934511244297028 -0.31060054898262 2.58100008964539 249 136 115
0.941113650798798 -0.310468763113022 2.58000016212463 255 146 120
0.949548900127411 -0.310939103364944 2.58400011062622 255 151 123
0.957266330718994 -0.3111692070961 2.5860002040863 255 148 128
0.965368390083313 -0.311520129442215 2.58900022506714 255 141 124
0.972361147403717 -0.311510533094406 2.58900022506714 255 141 124
0.978598415851593 -0.311260849237442 2.58700013160706 255 145 127
0.985207080841064 -0.311131954193115 2.5860002040863 255 145 125
0.99257904291153 -0.31124421954155 2.58700013160706 255 146 126
0.999184966087341 -0.311116427183151 2.5860002040863 255 151 131
1.00539779663086 -0.310868859291077 2.58400011062622 255 148 128
1.01042592525482 -0.310260951519012 2.57900023460388 255 151 129
1.01779568195343 -0.310375452041626 2.58000016212463 255 150 128
1.02437794208527 -0.310249924659729 2.57900023460388 255 151 129
1.03055667877197 -0.310004681348801 2.5770001411438 255 149 127
1.03672635555267 -0.309760063886642 2.57500004768372 254 149 127
1.04288721084595 -0.309516072273254 2.57300019264221 255 156 138
1.05067121982574 -0.309753865003586 2.57500004768372 255 154 136
1.05764663219452 -0.309751719236374 2.57500004768372 255 156 140
1.06421089172363 -0.309629917144775 2.57400012016296 254 158 145
1.06827485561371 -0.308787047863007 2.56700015068054 245 156 146
0.688843786716461 -0.320580989122391 2.60000014305115 240 116 111
0.692384839057922 -0.318956464529037 2.58700013160706 243 109 103
0.696936309337616 -0.317825376987457 2.57800006866455 249 107 100
0.702530682086945 -0.317187696695328 2.57300019264221 247 106 97
0.709200263023376 -0.317043244838715 2.57200002670288 249 110 99
0.716420829296112 -0.317145496606827 2.57300019264221 250 112 99
0.723927140235901 -0.317371100187302 2.57500004768372 253 115 100
0.732295513153076 -0.317966610193253 2.58000016212463 251 113 98
0.738397777080536 -0.317576259374619 2.5770001411438 251 113 98
0.744483530521393 -0.317186206579208 2.57400012016296 250 112 99
0.749676764011383 -0.316426664590836 2.56800007820129 254 116 103
0.757194221019745 -0.31665313243866 2.57000017166138 255 119 106
0.765019416809082 -0.317002952098846 2.57300019264221 255 120 107
0.771660208702087 -0.316860139369965 2.57200002670288 255 126 110
0.7776899933815 -0.316471219062805 2.56900000572205 255 123 105
0.784619629383087 -0.316452085971832 2.56900000572205 255 123 105
0.793089509010315 -0.317049086093903 2.57400012016296 255 130 112
0.802207767963409 -0.317892611026764 2.58100008964539 255 130 114
0.810109674930573 -0.318243652582169 2.58400011062622 255 123 105
0.817395150661469 -0.318348586559296 2.58500003814697 255 125 107
0.822772622108459 -0.317714929580688 2.58000016212463 255 130 114
0.829087734222412 -0.317451059818268 2.57800006866455 255 130 112
0.834743678569794 -0.316941291093826 2.57400012016296 255 130 111
0.841685950756073 -0.316924333572388 2.57400012016296 254 127 108
0.848298668861389 -0.316784620285034 2.57300019264221 255 136 117
0.855570912361145 -0.316891402006149 2.57400012016296 255 131 112
0.862178683280945 -0.316752374172211 2.57300019264221 255 137 118
0.869456887245178 -0.316859900951386 2.57400012016296 255 130 111
0.876400172710419 -0.316844671964645 2.57400012016296 255 131 112
0.884373426437378 -0.317199051380157 2.5770001411438 255 136 117
0.892017543315887 -0.317430734634399 2.57900023460388 255 138 119
0.898626983165741 -0.317293524742126 2.57800006866455 255 135 116
0.905582964420319 -0.317279845476151 2.57800006866455 255 140 117
0.912539482116699 -0.317266553640366 2.57800006866455 255 140 117
0.919853448867798 -0.317376762628555 2.57900023460388 255 141 120
0.925376415252686 -0.316872090101242 2.57500004768372 255 143 123
0.931240916252136 -0.316490978002548 2.57200002670288 255 138 121
0.937819480895996 -0.31635645031929 2.57100009918213 254 134 117
0.94659835100174 -0.316960632801056 2.57600021362305 255 141 121
0.953554332256317 -0.316950112581253 2.57600021362305 255 141 121
0.960511267185211 -0.316940039396286 2.57600021362305 255 138 121
0.966718196868896 -0.316684395074844 2.57400012016296 253 137 120
0.97178053855896 -0.316060155630112 2.56900000572205 255 146 128
0.978722214698792 -0.316051691770554 2.56900000572205 255 146 126
0.98528128862381 -0.315920680761337 2.56800007820129 255 147 127
0.994154810905457 -0.316528409719467 2.57300019264221 255 144 124
1.00033295154572 -0.316275477409363 2.57100009918213 255 150 126
1.00650191307068 -0.316023111343384 2.56900000572205 255 149 125
1.01345062255859 -0.316017389297485 2.56900000572205 255 149 127
1.02040100097656 -0.316012263298035 2.56900000572205 255 154 132
1.02575349807739 -0.315515726804733 2.56500005722046 255 151 130
1.0326966047287 -0.315511792898178 2.56500005722046 255 152 131
1.04004693031311 -0.315631538629532 2.56600022315979 255 155 134
1.04781258106232 -0.315874874591827 2.56800007820129 255 155 134
1.05435907840729 -0.315749913454056 2.56700015068054 255 155 134
1.05966186523438 -0.31525656580925 2.56300020217896 255 158 137
1.06536138057709 -0.314886927604675 2.56000018119812 253 154 135
1.06979012489319 -0.314148902893066 2.55400013923645 255 160 145
1.07671844959259 -0.314149647951126 2.55400013923645 238 147 135
0.691471099853516 -0.328898251056671 2.6100001335144 222 141 137
0.694236516952515 -0.326860010623932 2.59400010108948 232 120 116
0.696914732456207 -0.324822127819061 2.57800006866455 249 109 104
0.701144099235535 -0.32354062795639 2.56800007820129 245 104 95
0.706697523593903 -0.322889298200607 2.56300020217896 249 110 99
0.714450716972351 -0.323245942592621 2.56600022315979 248 110 97
0.721657276153564 -0.323350787162781 2.56700015068054 248 110 95
0.729436278343201 -0.323707669973373 2.57000017166138 252 114 99
0.73493880033493 -0.323057115077972 2.56500005722046 249 111 96
0.741570889949799 -0.322910577058792 2.56400012969971 250 112 99
0.747613072395325 -0.32251238822937 2.56100010871887 251 113 100
0.755701005458832 -0.322995841503143 2.56500005722046 244 108 95
0.762918412685394 -0.323101788759232 2.56600022315979 250 114 101
0.76924055814743 -0.322830200195313 2.56400012969971 255 125 109
0.774946331977844 -0.322306990623474 2.56000018119812 253 119 101
0.782462656497955 -0.322539478540421 2.56200003623962 254 122 104
0.790297627449036 -0.322898089885712 2.56500005722046 255 125 107
0.799081027507782 -0.323634505271912 2.57100009918213 255 125 107
0.805702209472656 -0.323490083217621 2.57000017166138 255 126 110
0.8126340508461 -0.32347172498703 2.57000017166138 255 123 107
0.818609118461609 -0.323076099157333 2.56700015068054 255 126 110
0.825532734394073 -0.323058426380157 2.56700015068054 255 127 111
0.831807792186737 -0.322789311408997 2.56500005722046 255 129 113
0.83970707654953 -0.323149740695953 2.56800007820129 254 124 108
0.845644593238831 -0.322755485773087 2.56500005722046 253 126 107
0.853560447692871 -0.323116540908813 2.56800007820129 255 132 113
0.858812093734741 -0.322471410036087 2.56300020217896 255 134 115
0.867414653301239 -0.323084741830826 2.56800007820129 255 135 115
0.874001741409302 -0.322943598031998 2.56700015068054 255 134 114
0.882299661636353 -0.323431849479675 2.57100009918213 255 136 115
0.888890266418457 -0.323291450738907 2.57000017166138 255 136 117
0.895127356052399 -0.323025703430176 2.56800007820129 253 130 111
0.9017054438591 -0.322886109352112 2.56700015068054 255 134 115
0.908986687660217 -0.322998583316803 2.56800007820129 255 136 117
0.916274130344391 -0.323111444711685 2.56900000572205 255 140 121
0.9224893450737 -0.322847455739975 2.56700015068054 255 139 120
0.928332626819611 -0.322458148002625 2.56400012969971 255 138 119
0.93452525138855 -0.322195112705231 2.56200003623962 254 137 117
0.942178010940552 -0.322435647249222 2.56400012969971 255 138 118
0.949472069740295 -0.322550803422928 2.56500005722046 255 139 119
0.956027090549469 -0.322415053844452 2.56400012969971 255 143 123
0.962577641010284 -0.322279721498489 2.56300020217896 255 142 125
0.967610895633698 -0.32164204120636 2.55800008773804 255 145 125
0.97414231300354 -0.321507841348648 2.55700016021729 255 144 124
0.981053352355957 -0.321499943733215 2.55700016021729 255 148 128
0.989124774932861 -0.321869760751724 2.56000018119812 255 150 129
0.996435582637787 -0.321988701820374 2.56100010871887 254 144 122
1.00336170196533 -0.321982473134995 2.56100010871887 255 151 129
1.01028943061829 -0.321976810693741 2.56100010871887 255 152 130
1.01642417907715 -0.321720361709595 2.55900001525879 255 157 135
1.02215039730072 -0.32133886218071 2.55600023269653 255 155 134
1.02906966209412 -0.321335047483444 2.55600023269653 255 156 135
1.03599095344543 -0.321331918239594 2.55600023269653 255 153 132
1.04332208633423 -0.321455150842667 2.55700016021729 255 154 133
1.04901790618896 -0.321076184511185 2.55400013923645 255 156 135
1.05635333061218 -0.321200728416443 2.5550000667572 255 156 135
1.0632803440094 -0.321200281381607 2.5550000667572 255 157 136
1.06853401660919 -0.320697665214539 2.55100011825562 255 162 143
1.07376849651337 -0.320195764303207 2.54700016975403 255 157 142
1.07813513278961 -0.319443136453629 2.54100012779236 246 152 143
0.704125642776489 -0.331925064325333 2.57900023460388 226 117 111
0.708054661750793 -0.330487608909607 2.56800007820129 244 110 102
0.713594138622284 -0.329822570085526 2.56300020217896 248 112 100
0.718824803829193 -0.329029113054276 2.55700016021729 248 110 95
0.725157976150513 -0.328750610351563 2.5550000667572 247 109 94
0.732052862644196 -0.328729629516602 2.5550000667572 244 106 91
0.739814937114716 -0.32909482717514 2.55800008773804 251 113 98
0.746716856956482 -0.329074144363403 2.55800008773804 254 116 101
0.753029406070709 -0.328796476125717 2.55600023269653 249 111 96
0.760519802570343 -0.329033523797989 2.55800008773804 252 116 101
0.767120718955994 -0.328884899616241 2.55700016021729 255 119 104
0.772807896137238 -0.328350722789764 2.5530002117157 253 119 101
0.780000150203705 -0.328459829092026 2.55400013923645 255 129 111
0.787505745887756 -0.328697830438614 2.55600023269653 251 119 101
0.795021831989288 -0.328935980796814 2.55800008773804 255 124 108
0.80129474401474 -0.328660130500793 2.55600023269653 255 125 109
0.807872891426086 -0.328513085842133 2.5550000667572 255 124 108
0.814764499664307 -0.328494966030121 2.5550000667572 255 124 111
0.821655988693237 -0.328477114439011 2.5550000667572 255 122 109
0.829196214675903 -0.328716725111008 2.55700016021729 255 126 110
0.836747229099274 -0.328956574201584 2.55900001525879 255 127 111
0.842331111431122 -0.328425526618958 2.5550000667572 255 132 116
0.849887907505035 -0.328666120767593 2.55700016021729 255 136 117
0.856450617313385 -0.328521430492401 2.55600023269653 255 134 115
0.864359021186829 -0.328891187906265 2.55900001525879 255 136 116
0.870922207832336 -0.32874721288681 2.55800008773804 255 137 114
0.878166735172272 -0.328860700130463 2.55900001525879 255 136 115
0.885071218013763 -0.328846037387848 2.55900001525879 255 139 118
0.890233397483826 -0.328189313411713 2.55400013923645 255 138 117
0.897125482559204 -0.32817554473877 2.55400013923645 255 137 118
0.903664231300354 -0.328033715486526 2.5530002117157 255 138 119
0.910554826259613 -0.32802078127861 2.5530002117157 255 141 122
0.917086660861969 -0.327879816293716 2.55200004577637 255 141 122
0.925062298774719 -0.328253269195557 2.5550000667572 255 139 120
0.931960701942444 -0.328241735696793 2.5550000667572 255 137 118
0.93885999917984 -0.328230708837509 2.5550000667572 255 139 120
0.945760130882263 -0.328220158815384 2.5550000667572 255 139 120
0.952661454677582 -0.328210145235062 2.5550000667572 255 141 121
0.959188342094421 -0.328072190284729 2.55400013923645 255 141 121
0.964954376220703 -0.327677875757217 2.55100011825562 255 146 126
0.972229301929474 -0.327797919511795 2.55200004577637 255 149 128
0.977976262569427 -0.327404707670212 2.54900002479553 255 146 125
0.985253989696503 -0.32752588391304 2.55000019073486 255 145 124
0.992149233818054 -0.327519148588181 2.55000019073486 255 145 125
0.999438107013702 -0.327641516923904 2.55100011825562 255 152 132
1.00555026531219 -0.327379077672958 2.54900002479553 253 144 124
1.01125609874725 -0.326988905668259 2.5460000038147 255 149 128
1.01654756069183 -0.326470911502838 2.54200005531311 255 152 131
1.02342963218689 -0.326467275619507 2.54200005531311 255 153 132
1.03071904182434 -0.326592773199081 2.54300022125244 255 152 131
1.03883183002472 -0.326975703239441 2.5460000038147 255 154 133
1.04573059082031 -0.32697406411171 2.5460000038147 255 154 133
1.05263161659241 -0.326973080635071 2.5460000038147 255 156 135
1.05995118618011 -0.327101320028305 2.54700016975403 255 157 136
1.06560266017914 -0.326716482639313 2.54400014877319 255 157 138
1.07081890106201 -0.326203972101212 2.54000020027161 255 155 139
1.07559156417847 -0.325563728809357 2.53500008583069 255 156 141
1.08332872390747 -0.325823247432709 2.53700017929077 255 160 147
0.711341440677643 -0.339032411575317 2.58000016212463 236 118 111
0.714686214923859 -0.3373022377491 2.56700015068054 240 110 102
0.717960119247437 -0.335572451353073 2.55400013923645 248 112 99
0.722866296768188 -0.334631353616714 2.54700016975403 247 109 94
0.730026185512543 -0.334741532802582 2.54800009727478 248 110 95
0.737480461597443 -0.334983289241791 2.55000019073486 248 110 95
0.744652926921844 -0.335093826055527 2.55100011825562 252 114 99
0.749768197536469 -0.334285080432892 2.54500007629395 250 114 99
0.757229328155518 -0.334527432918549 2.54700016975403 251 115 100
0.764400660991669 -0.334638595581055 2.54800009727478 252 118 102
0.770366489887238 -0.334224700927734 2.54500007629395 254 120 104
0.776926696300507 -0.334073752164841 2.54400014877319 255 127 111
0.784097492694855 -0.334185659885406 2.54500007629395 255 125 109
0.791273295879364 -0.334297806024551 2.5460000038147 255 125 109
0.7978276014328 -0.334147721529007 2.54500007629395 255 127 111
0.805008769035339 -0.334260433912277 2.5460000038147 255 126 110
0.812514126300812 -0.334504723548889 2.54800009727478 255 125 109
0.818743944168091 -0.334224224090576 2.5460000038147 253 123 107
0.825287401676178 -0.334075301885605 2.54500007629395 253 123 107
0.832479476928711 -0.334189265966415 2.5460000038147 250 120 104
0.838688015937805 -0.333909809589386 2.54400014877319 251 121 105
0.846215426921844 -0.334155708551407 2.5460000038147 255 127 109
0.85274875164032 -0.33400821685791 2.54500007629395 255 131 112
0.860628008842468 -0.334386080503464 2.54800009727478 255 130 110
0.866821348667145 -0.334108114242554 2.5460000038147 255 134 114
0.87403392791748 -0.334224253892899 2.54700016975403 255 137 117
0.880214750766754 -0.333947122097015 2.54500007629395 255 136 116
0.887430906295776 -0.334064066410065 2.5460000038147 255 141 122
0.893950521945953 -0.333919078111649 2.54500007629395 255 138 119
0.900111496448517 -0.333643287420273 2.54300022125244 255 137 118
0.905905604362488 -0.333236753940582 2.54000020027161 255 138 119
0.913121581077576 -0.333355486392975 2.54100012779236 255 135 116
0.921067893505096 -0.333737075328827 2.54400014877319 255 136 117
0.928666651248932 -0.333987921476364 2.5460000038147 255 141 122
0.935541987419128 -0.333976864814758 2.5460000038147 255 140 121
0.942048311233521 -0.333835184574127 2.54500007629395 255 141 122
0.948550224304199 -0.333694040775299 2.54400014877319 255 141 122
0.956925749778748 -0.334209263324738 2.54800009727478 251 136 116
0.963432669639587 -0.334069192409515 2.54700016975403 255 141 121
0.969935357570648 -0.333929628133774 2.5460000038147 255 143 123
0.975283086299896 -0.33339723944664 2.54200005531311 255 147 126
0.982542395591736 -0.333521217107773 2.54300022125244 255 145 125
0.989030301570892 -0.333383411169052 2.54200005531311 255 147 127
0.996298015117645 -0.33350858092308 2.54300022125244 255 145 125
1.0027836561203 -0.333371996879578 2.54200005531311 255 144 124
1.00767695903778 -0.332711517810822 2.53700017929077 255 152 132
1.01374447345734 -0.332445114850998 2.53500008583069 255 154 133
1.01980316638947 -0.332179397344589 2.53300023078918 255 153 131
1.02828466892242 -0.332701116800308 2.53700017929077 254 149 128
1.03556561470032 -0.332830131053925 2.53800010681152 255 156 135
1.04244351387024 -0.332828670740128 2.53800010681152 255 155 134
1.05056393146515 -0.333221316337585 2.54100012779236 255 153 132
1.05745434761047 -0.333221316337585 2.54100012779236 253 150 129
1.06309032440186 -0.33282858133316 2.53800010681152 255 157 136
1.06829118728638 -0.332305490970612 2.53400015830994 255 155 134
1.07304811477661 -0.331651955842972 2.52900004386902 255 156 135
1.08205080032349 -0.332310616970062 2.53400015830994 255 157 136
1.08721590042114 -0.331789791584015 2.53000020980835 255 161 142
1.0923615694046 -0.331269651651382 2.52600002288818 255 159 144
0.719906151294708 -0.343439936637878 2.56100010871887 231 120 112
0.722844898700714 -0.341540902853012 2.54700016975403 237 110 101
0.72828596830368 -0.340849012136459 2.54200005531311 245 113 97
0.735145747661591 -0.340827792882919 2.54200005531311 249 114 96
0.742004930973053 -0.340806752443314 2.54200005531311 249 114 96
0.747096240520477 -0.339981585741043 2.53600001335144 253 118 100
0.753641366958618 -0.339827030897141 2.53500008583069 246 111 93
0.76078063249588 -0.339940786361694 2.53600001335144 246 112 94
0.76671439409256 -0.339518666267395 2.53300023078918 249 117 101
0.772936999797821 -0.339230805635452 2.5310001373291 255 125 109
0.78007298707962 -0.339345365762711 2.53200006484985 253 123 105
0.787524819374084 -0.339594155550003 2.53400015830994 251 121 103
0.795300960540771 -0.339977234601974 2.53700017929077 254 124 106
0.802776992321014 -0.340226531028748 2.53900003433228 255 129 111
0.810263872146606 -0.340476155281067 2.54100012779236 255 125 109
0.816153585910797 -0.340056091547012 2.53800010681152 255 125 109
0.822675704956055 -0.339904397726059 2.53700017929077 254 124 108
0.828538656234741 -0.339485079050064 2.53400015830994 255 130 114
0.835044801235199 -0.339334070682526 2.53300023078918 255 130 114
0.841213464736938 -0.339049488306046 2.5310001373291 255 126 108
0.849381983280182 -0.339569002389908 2.53500008583069 252 122 104
0.856221318244934 -0.339553087949753 2.53500008583069 255 128 109
0.86306095123291 -0.339537560939789 2.53500008583069 255 130 111
0.869557976722717 -0.339388519525528 2.53400015830994 255 136 116
0.877087473869324 -0.339641630649567 2.53600001335144 255 132 113
0.883931159973145 -0.339627325534821 2.53600001335144 255 134 115
0.890775561332703 -0.339613497257233 2.53600001335144 255 132 113
0.896912753582001 -0.33933225274086 2.53400015830994 255 133 114
0.902682900428772 -0.338917583227158 2.5310001373291 255 138 119
0.909875214099884 -0.339039087295532 2.53200006484985 255 133 114
0.917797684669495 -0.339428782463074 2.53500008583069 251 130 111
0.92537260055542 -0.339685082435608 2.53700017929077 255 137 118
0.932959139347076 -0.339941829442978 2.53900003433228 255 141 122
0.937966346740723 -0.339261919260025 2.53400015830994 255 139 120
0.944439232349396 -0.339118152856827 2.53300023078918 255 144 124
0.951658725738525 -0.339242577552795 2.53400015830994 253 136 116
0.959641396999359 -0.339635401964188 2.53700017929077 255 142 122
0.965736746788025 -0.339359372854233 2.53500008583069 255 145 125
0.971055328845978 -0.338816225528717 2.5310001373291 255 142 122
0.978285491466522 -0.338942974805832 2.53200006484985 253 140 120
0.985133349895477 -0.338936477899551 2.53200006484985 255 149 131
0.991982817649841 -0.338930606842041 2.53200006484985 255 143 125
0.998439311981201 -0.338791459798813 2.5310001373291 255 146 128
1.00330328941345 -0.33811753988266 2.52600002288818 255 148 128
1.00974178314209 -0.337979763746262 2.52500009536743 255 149 129
1.01617646217346 -0.337842583656311 2.52400016784668 255 154 132
1.02503967285156 -0.338509231805801 2.52900004386902 255 155 134
1.03189170360565 -0.338507264852524 2.52900004386902 255 152 131
1.03915667533875 -0.338639914989471 2.53000020980835 255 153 132
1.04725611209869 -0.33904093503952 2.53300023078918 255 152 134
1.05370938777924 -0.338907271623611 2.53200006484985 255 151 133
1.06057846546173 -0.338908225297928 2.53200006484985 255 157 136
1.06618511676788 -0.338508367538452 2.52900004386902 255 158 137
1.07262659072876 -0.338376969099045 2.52800011634827 255 157 136
1.0803462266922 -0.338647931814194 2.53000020980835 255 157 136
1.08507132530212 -0.337982684373856 2.52500009536743 255 157 136
1.08977222442627 -0.337318241596222 2.52000021934509 255 157 138
1.09357810020447 -0.336386829614639 2.51300001144409 254 156 141
1.10172784328461 -0.336794853210449 2.51600003242493 255 164 151
0.726796329021454 -0.350365221500397 2.56100010871887 214 118 110
0.729983568191528 -0.348565012216568 2.54800009727478 248 122 106
0.734256982803345 -0.347312420606613 2.53900003433228 246 117 97
0.739940702915192 -0.346744060516357 2.53500008583069 250 117 95
0.745013415813446 -0.345902442932129 2.52900004386902 249 117 99
0.750945270061493 -0.345471501350403 2.52600002288818 248 115 95
0.757760465145111 -0.3454509973526 2.52600002288818 250 118 100
0.763667464256287 -0.345020622014999 2.52300000190735 252 120 102
0.770474255084991 -0.345000743865967 2.52300000190735 252 120 102
0.776972711086273 -0.344844341278076 2.5220000743866 251 119 101
0.784397959709167 -0.345098495483398 2.52400016784668 248 116 98
0.79214733839035 -0.345489591360092 2.52700018882751 250 118 100
0.7992804646492 -0.345607489347458 2.52800011634827 251 119 101
0.806100189685822 -0.345589011907578 2.52800011634827 255 125 107
0.811633586883545 -0.345024049282074 2.52400016784668 251 121 103
0.818442642688751 -0.345006316900253 2.52400016784668 252 125 106
0.82492470741272 -0.344852119684219 2.52300000190735 255 130 111
0.831401646137238 -0.344698339700699 2.5220000743866 255 130 111
0.83787339925766 -0.344544947147369 2.52100014686584 255 130 111
0.845345079898834 -0.344801932573318 2.52300000190735 255 126 108
0.853165745735168 -0.345195949077606 2.52600002288818 252 122 104
0.85930073261261 -0.344907134771347 2.52400016784668 255 128 110
0.86611145734787 -0.344891935586929 2.52400016784668 255 134 115
0.872576892375946 -0.344740569591522 2.52300000190735 253 128 109
0.881128787994385 -0.345409452915192 2.52800011634827 255 134 115
0.887249410152435 -0.345122307538986 2.52600002288818 255 132 113
0.893360018730164 -0.344835668802261 2.52400016784668 255 130 111
0.899460434913635 -0.344549477100372 2.5220000743866 255 132 116
0.906628787517548 -0.344673663377762 2.52300000190735 255 134 115
0.914527535438538 -0.345071524381638 2.52600002288818 255 135 116
0.922078609466553 -0.345333307981491 2.52800011634827 255 137 118
0.930376350879669 -0.345868736505508 2.53200006484985 255 139 120
0.93499493598938 -0.345038712024689 2.52600002288818 255 140 121
0.940328121185303 -0.344482451677322 2.5220000743866 255 136 117
0.946767568588257 -0.344336569309235 2.52100014686584 255 142 122
0.955093801021576 -0.344874143600464 2.52500009536743 255 143 123
0.961538255214691 -0.344729393720627 2.52400016784668 255 145 125
0.967978596687317 -0.344585239887238 2.52300000190735 255 141 120
0.975187718868256 -0.344714790582657 2.52400016784668 255 143 123
0.982014656066895 -0.344708442687988 2.52400016784668 255 142 122
0.98962664604187 -0.344975829124451 2.52600002288818 252 139 119
0.996462047100067 -0.344970673322678 2.52600002288818 255 148 130
1.00171041488647 -0.344419986009598 2.5220000743866 255 146 126
1.00813865661621 -0.344279587268829 2.52100014686584 255 146 126
1.01416075229645 -0.34400337934494 2.51900005340576 255 150 130
1.02138984203339 -0.344137519598007 2.52000021934509 255 150 130
1.02780997753143 -0.343999177217484 2.51900005340576 255 153 132
1.03422713279724 -0.343861609697342 2.51800012588501 255 153 135
1.04229474067688 -0.344271034002304 2.52100014686584 255 150 132
1.04830002784729 -0.343998312950134 2.51900005340576 255 150 132
1.05639111995697 -0.344409197568893 2.5220000743866 255 157 139
1.06323623657227 -0.344411194324493 2.5220000743866 255 157 136
1.06923520565033 -0.344140827655792 2.52000021934509 255 156 135
1.07650697231293 -0.344280898571014 2.52100014686584 255 158 137
1.08163809776306 -0.343739002943039 2.51700019836426 255 157 136
1.08761525154114 -0.343470990657806 2.51500010490417 255 158 137
1.09314918518066 -0.343067288398743 2.51200008392334 255 159 138
1.09998333454132 -0.343074083328247 2.51200008392334 254 155 134
1.10593950748444 -0.342808663845062 2.51000022888184 255 160 143
1.11144435405731 -0.342407405376434 2.507000207901 254 159 144
0.733686089515686 -0.357289552688599 2.56100010871887 235 131 123
0.735970556735992 -0.355035692453384 2.54500007629395 239 118 99
0.739919483661652 -0.353619277477264 2.53500008583069 244 117 97
0.74410879611969 -0.35234272480011 2.52600002288818 249 115 97
0.749735474586487 -0.351763933897018 2.5220000743866 252 121 101
0.755340337753296 -0.351185470819473 2.51800012588501 245 114 94
0.761831343173981 -0.35102567076683 2.51700019836426 249 118 98
0.768316805362701 -0.350866168737412 2.51600003242493 248 117 97
0.775104761123657 -0.350846439599991 2.51600003242493 252 119 99
0.781892478466034 -0.350827008485794 2.51600003242493 250 116 98
0.788366734981537 -0.350668370723724 2.51500010490417 251 117 99
0.794519305229187 -0.350370645523071 2.51300001144409 249 115 97
0.801936686038971 -0.350630968809128 2.51500010490417 254 120 104
0.808078408241272 -0.35033392906189 2.51300001144409 255 124 108
0.815182447433472 -0.350455492734909 2.51400017738342 251 121 103
0.821964800357819 -0.350437968969345 2.51400017738342 255 129 110
0.828747510910034 -0.350420832633972 2.51400017738342 255 129 110
0.835530400276184 -0.350404053926468 2.51400017738342 252 125 106
0.841978371143341 -0.350248217582703 2.51300001144409 252 125 106
0.850110232830048 -0.350789725780487 2.51700019836426 255 131 113
0.856561601161957 -0.350634753704071 2.51600003242493 255 129 111
0.863351285457611 -0.350619554519653 2.51600003242493 253 126 107
0.870141506195068 -0.350604832172394 2.51600003242493 255 128 109
0.877280652523041 -0.350729882717133 2.51700019836426 255 129 110
0.883723378181458 -0.350576668977737 2.51600003242493 255 133 114
0.88945347070694 -0.350145250558853 2.51300001144409 255 128 109
0.895524680614471 -0.349853694438934 2.51100015640259 255 132 113
0.902663767337799 -0.349980622529984 2.51200008392334 255 137 118
0.910533308982849 -0.350386619567871 2.51500010490417 255 138 119
0.917325735092163 -0.350375235080719 2.51500010490417 255 135 116
0.925956249237061 -0.351060897111893 2.52000021934509 255 136 117
0.930913329124451 -0.350354015827179 2.51500010490417 255 137 118
0.937335848808289 -0.350204914808273 2.51400017738342 255 141 122
0.942251861095428 -0.349499195814133 2.5090000629425 255 141 122
0.950924634933472 -0.350187033414841 2.51400017738342 255 140 119
0.958101809024811 -0.350318223237991 2.51500010490417 255 144 123
0.964518487453461 -0.350171506404877 2.51400017738342 255 143 122
0.969772100448608 -0.34960749745369 2.51000022888184 255 145 125
0.97772878408432 -0.350019097328186 2.51300001144409 255 146 126
0.98531174659729 -0.350292086601257 2.51500010490417 255 145 125
0.993301510810852 -0.350704938173294 2.51800012588501 255 148 128
0.998131573200226 -0.350004225969315 2.51300001144409 255 145 125
1.00533604621887 -0.350139915943146 2.51400017738342 255 146 126
1.01214504241943 -0.350136965513229 2.51400017738342 255 148 128
1.01895582675934 -0.350134760141373 2.51400017738342 255 150 130
1.02495265007019 -0.349854707717896 2.51200008392334 255 151 131
1.03094089031219 -0.349575370550156 2.51000022888184 255 157 139
1.03816044330597 -0.349714577198029 2.51100015640259 255 151 133
1.04497170448303 -0.349715292453766 2.51100015640259 255 149 131
1.05346071720123 -0.350273817777634 2.51500010490417 254 148 130
1.06070911884308 -0.350415349006653 2.51600003242493 255 155 134
1.06669270992279 -0.350139886140823 2.51400017738342 254 151 130
1.0718138217926 -0.349586635828018 2.51000022888184 255 156 135
1.07734572887421 -0.349173426628113 2.507000207901 255 160 137
1.0837287902832 -0.349039614200592 2.50600004196167 255 159 136
1.09097993373871 -0.349185317754745 2.507000207901 255 157 134
1.09692549705505 -0.348913908004761 2.50500011444092 255 161 140
1.10242283344269 -0.34850412607193 2.50200009346008 255 157 136
1.10702013969421 -0.347816586494446 2.49700021743774 255 162 143
1.11248552799225 -0.347408562898636 2.49400019645691 255 160 145
1.11659181118011 -0.346583485603333 2.48800015449524 247 162 150
0.744382262229919 -0.359335064888 2.52700018882751 236 114 101
0.748525679111481 -0.358034312725067 2.51800012588501 243 120 103
0.75411993265152 -0.357444792985916 2.51400017738342 246 122 99
0.759692490100861 -0.356855660676956 2.51000022888184 247 118 96
0.766159236431122 -0.35669332742691 2.5090000629425 247 116 94
0.772928595542908 -0.356673449277878 2.5090000629425 243 110 88
0.778765439987183 -0.356227427721024 2.50600004196167 249 114 96
0.784586012363434 -0.355781733989716 2.50300002098084 248 113 95
0.790390491485596 -0.355336397886276 2.5 246 111 93
0.797773063182831 -0.355602085590363 2.50200009346008 248 114 96
0.804201722145081 -0.355441719293594 2.50100016593933 252 118 102
0.811597883701324 -0.355708062648773 2.50300002098084 255 130 114
0.819331884384155 -0.35611680150032 2.50600004196167 255 127 109
0.826422929763794 -0.35624173283577 2.507000207901 254 127 108
0.833187341690063 -0.356224894523621 2.507000207901 255 130 111
0.838611721992493 -0.355640023946762 2.50300002098084 254 127 108
0.847054719924927 -0.35633447766304 2.50800013542175 254 127 108
0.853141844272614 -0.35603466629982 2.50600004196167 255 129 110
0.86024808883667 -0.356161564588547 2.507000207901 255 128 109
0.866322755813599 -0.355862706899643 2.50500011444092 255 130 111
0.873781204223633 -0.356132477521896 2.507000207901 252 125 106
0.879846096038818 -0.355834513902664 2.50500011444092 255 133 114
0.885900974273682 -0.355537086725235 2.50300002098084 255 131 112
0.892302334308624 -0.355382144451141 2.50200009346008 255 138 119
0.900136291980743 -0.35579589009285 2.50500011444092 255 133 114
0.907263338565826 -0.355926036834717 2.50600004196167 255 133 114
0.91366720199585 -0.35577267408371 2.50500011444092 255 134 115
0.921168923377991 -0.35604590177536 2.507000207901 255 137 118
0.928312242031097 -0.356177628040314 2.50800013542175 255 133 114
0.935462117195129 -0.356309950351715 2.5090000629425 255 137 118
0.941491901874542 -0.356016784906387 2.507000207901 255 140 121
0.94902503490448 -0.356292217969894 2.5090000629425 255 136 115
0.956570327281952 -0.356568276882172 2.51100015640259 255 138 117
0.961825788021088 -0.355992913246155 2.507000207901 255 139 118
0.966674566268921 -0.355276167392731 2.50200009346008 254 139 118
0.974221348762512 -0.355554074048996 2.50400018692017 255 145 124
0.982955813407898 -0.356258630752563 2.5090000629425 255 146 126
0.989746570587158 -0.356253802776337 2.5090000629425 255 145 125
0.995347559452057 -0.355823755264282 2.50600004196167 255 146 126
1.00253355503082 -0.355962336063385 2.507000207901 255 144 124
1.00972676277161 -0.356101542711258 2.50800013542175 255 148 128
1.01692748069763 -0.356241524219513 2.5090000629425 255 150 130
1.0229115486145 -0.355956315994263 2.507000207901 255 144 124
1.02929747104645 -0.35581374168396 2.50600004196167 255 149 129
1.03609359264374 -0.355813980102539 2.50600004196167 255 150 130
1.04205977916718 -0.355530947446823 2.50400018692017 255 150 130
1.05094945430756 -0.356242656707764 2.5090000629425 255 147 127
1.05607461929321 -0.355677247047424 2.50500011444092 255 152 131
1.06202900409698 -0.355396658182144 2.50300002098084 255 157 136
1.06669402122498 -0.354690879583359 2.4980001449585 255 155 133
1.0739129781723 -0.354837834835052 2.49900007247925 255 159 134
1.0811402797699 -0.35498571395874 2.5 255 160 135
1.08707022666931 -0.354708433151245 2.4980001449585 255 159 134
1.09343028068542 -0.354574054479599 2.49700021743774 255 159 136
1.0989066362381 -0.354156523942947 2.49400019645691 255 157 136
1.10525631904602 -0.354023844003677 2.49300003051758 255 160 139
1.11026573181152 -0.353466063737869 2.48900008201599 254 157 140
1.11435914039612 -0.352625161409378 2.48300004005432 255 164 149
0.750288248062134 -0.365731447935104 2.52400016784668 233 124 112
0.753499388694763 -0.363971769809723 2.51200008392334 244 121 102
0.757856130599976 -0.362792044878006 2.50400018692017 247 121 97
0.764001727104187 -0.362482011318207 2.50200009346008 249 115 92
0.770752429962158 -0.362462013959885 2.50200009346008 249 116 94
0.776881456375122 -0.362152636051178 2.5 253 118 100
0.783313155174255 -0.361988425254822 2.49900007247925 247 112 94
0.789107143878937 -0.361534863710403 2.49600005149841 248 113 95
0.795841455459595 -0.361516147851944 2.49600005149841 249 114 96
0.801611185073853 -0.361063361167908 2.49300003051758 250 116 98
0.808661818504334 -0.361190229654312 2.49400019645691 247 115 99
0.815718114376068 -0.361317455768585 2.49500012397766 250 118 102
0.823109447956085 -0.361589848995209 2.49700021743774 255 126 110
0.830179572105408 -0.361717760562897 2.4980001449585 255 129 113
0.835915207862854 -0.361266881227493 2.49500012397766 254 127 108
0.843323767185211 -0.361540466547012 2.49700021743774 255 130 111
0.850062549114227 -0.361524879932404 2.49700021743774 255 130 111
0.856458604335785 -0.361364841461182 2.49600005149841 255 131 112
0.863541603088379 -0.361494928598404 2.49700021743774 253 128 109
0.870281755924225 -0.361480593681335 2.49700021743774 255 128 109
0.876671433448792 -0.361322015523911 2.49600005149841 253 128 109
0.883056342601776 -0.361163944005966 2.49500012397766 253 128 108
0.889793276786804 -0.361151129007339 2.49500012397766 255 134 114
0.897608816623688 -0.36157301068306 2.4980001449585 255 134 114
0.904355525970459 -0.361561208963394 2.4980001449585 254 129 110
0.910738348960876 -0.361405193805695 2.49700021743774 255 133 114
0.917484104633331 -0.361394464969635 2.49700021743774 255 134 118
0.924600899219513 -0.361528962850571 2.4980001449585 255 136 119
0.932842910289764 -0.362098306417465 2.50200009346008 255 132 115
0.939229846000671 -0.361944496631622 2.50100016593933 255 136 117
0.946369111537933 -0.362080782651901 2.50200009346008 255 138 119
0.952372074127197 -0.361783474683762 2.5 255 140 121
0.957598626613617 -0.36119744181633 2.49600005149841 255 139 118
0.962418437004089 -0.360467344522476 2.49100017547607 255 141 117
0.969935953617096 -0.360750794410706 2.49300003051758 255 147 123
0.978641390800476 -0.361469089984894 2.4980001449585 255 143 122
0.985403060913086 -0.361464470624924 2.4980001449585 254 141 120
0.991371929645538 -0.361171156167984 2.49600005149841 255 148 124
0.99813175201416 -0.361167907714844 2.49600005149841 255 146 125
1.00610113143921 -0.361599504947662 2.49900007247925 255 147 127
1.01368355751038 -0.361887186765671 2.50100016593933 255 146 126
1.02005457878113 -0.361741423606873 2.5 255 145 125
1.02683305740356 -0.361741125583649 2.5 255 147 127
1.03237342834473 -0.36130753159523 2.49700021743774 255 151 131
1.03873217105865 -0.361164093017578 2.49600005149841 255 150 130
1.04634428024292 -0.361455529928207 2.4980001449585 255 150 130
1.05144023895264 -0.360879600048065 2.49400019645691 255 155 133
1.05609261989594 -0.360159784555435 2.48900008201599 255 150 128
1.06157457828522 -0.359730184078217 2.48600006103516 255 155 133
1.07048082351685 -0.360459059476852 2.49100017547607 255 156 131
1.07768714427948 -0.360609978437424 2.49200010299683 255 157 132
1.08272588253021 -0.360038220882416 2.48800015449524 255 158 133
1.0903731584549 -0.360335618257523 2.49000000953674 255 162 139
1.09715306758881 -0.360344499349594 2.49000000953674 255 158 137
1.10393643379211 -0.360354334115982 2.49000000953674 255 158 137
1.10804641246796 -0.359496772289276 2.48400020599365 255 158 137
1.11347341537476 -0.359074234962463 2.48100018501282 255 159 138
1.11662995815277 -0.357928991317749 2.47300004959106 255 166 144
1.12292611598969 -0.357797771692276 2.47200012207031 255 168 146
1.13104820251465 -0.35824653506279 2.47500014305115 230 146 130
0.758440911769867 -0.369876265525818 2.50600004196167 231 125 97
0.762760102748871 -0.368675142526627 2.4980001449585 244 119 99
0.769192278385162 -0.368507444858551 2.49700021743774 252 119 99
0.775618970394135 -0.368340075016022 2.49600005149841 247 113 95
0.782040119171143 -0.368173062801361 2.49500012397766 252 117 99
0.7875075340271 -0.3675636947155 2.49100017547607 245 110 92
0.793272197246552 -0.367102324962616 2.48800015449524 250 115 97
0.799020707607269 -0.366641283035278 2.4850001335144 247 113 95
0.805725932121277 -0.366623312234879 2.4850001335144 250 116 98
0.812758207321167 -0.366753220558167 2.48600006103516 251 117 99
0.819466412067413 -0.366735935211182 2.48600006103516 245 113 97
0.826174914836884 -0.36671906709671 2.48600006103516 252 122 106
0.832213699817657 -0.366407632827759 2.48400020599365 251 124 105
0.838917434215546 -0.366391599178314 2.48400020599365 253 126 107
0.845621526241302 -0.366375982761383 2.48400020599365 255 130 111
0.853355526924133 -0.366803348064423 2.48700022697449 255 131 112
0.85903126001358 -0.366346150636673 2.48400020599365 254 129 109
0.865736961364746 -0.366331934928894 2.48400020599365 255 132 113
0.872091889381409 -0.366170644760132 2.48300004005432 255 131 112
0.879504084587097 -0.36645233631134 2.4850001335144 253 128 108
0.886570990085602 -0.36658701300621 2.48600006103516 255 135 115
0.894003629684448 -0.36686971783638 2.48800015449524 255 133 113
0.901447713375092 -0.367152839899063 2.49000000953674 255 131 111
0.908538937568665 -0.36728909611702 2.49100017547607 254 131 112
0.914166808128357 -0.366836130619049 2.48800015449524 255 136 117
0.920149445533752 -0.366531133651733 2.48600006103516 255 137 118
0.927986681461334 -0.366963922977448 2.48900008201599 255 138 121
0.935090184211731 -0.36710250377655 2.49000000953674 255 134 115
0.941822052001953 -0.367094129323959 2.49000000953674 255 138 119
0.948555171489716 -0.367086470127106 2.49000000953674 255 136 117
0.954906165599823 -0.366931974887848 2.48900008201599 255 141 120
0.960866868495941 -0.366630762815475 2.48700022697449 255 141 120
0.966428935527802 -0.366182774305344 2.48400020599365 255 142 121
0.975110590457916 -0.366914749145508 2.48900008201599 255 147 126
0.981454133987427 -0.366762936115265 2.48800015449524 255 146 125
0.9881911277771 -0.366759240627289 2.48800015449524 255 143 122
0.994530081748962 -0.366608858108521 2.48700022697449 255 147 126
1.00167059898376 -0.366753965616226 2.48800015449524 255 147 126
1.00841319561005 -0.366752445697784 2.48800015449524 255 144 123
1.01597368717194 -0.367046475410461 2.49000000953674 255 145 124
1.02272593975067 -0.367046475410461 2.49000000953674 255 143 122
1.02906680107117 -0.366899818181992 2.48900008201599 255 147 127
1.03374004364014 -0.366164326667786 2.48400020599365 255 146 126
1.04132032394409 -0.366461515426636 2.48600006103516 255 146 126
1.04511976242065 -0.365432769060135 2.47900009155273 255 145 125
1.05142951011658 -0.365289390087128 2.47800016403198 255 146 126
1.05773651599884 -0.36514687538147 2.47700023651123 255 153 132
1.06790828704834 -0.366331905126572 2.4850001335144 255 156 131
1.07509922981262 -0.366485953330994 2.48600006103516 255 156 131
1.0792521238327 -0.365608900785446 2.48000001907349 255 156 134
1.08556485176086 -0.365469872951508 2.47900009155273 255 156 135
1.09319722652435 -0.365774005651474 2.48100018501282 255 157 136
1.09951341152191 -0.365636825561523 2.48000001907349 255 159 138
1.10493528842926 -0.365205734968185 2.47700023651123 255 158 137
1.11124181747437 -0.365070462226868 2.4760000705719 255 162 141
1.11664319038391 -0.364641189575195 2.47300004959106 255 161 138
1.12294042110443 -0.364507883787155 2.47200012207031 255 162 139
1.12877857685089 -0.364228039979935 2.47000002861023 254 160 141
1.13644874095917 -0.364539086818695 2.47200012207031 255 169 153
0.764266431331635 -0.376198768615723 2.50300002098084 237 122 101
0.769480288028717 -0.375427007675171 2.4980001449585 236 113 94
0.774666965007782 -0.374655663967133 2.49300003051758 249 117 99
0.781080484390259 -0.374485850334167 2.49200010299683 241 107 89
0.785907924175262 -0.373565047979355 2.48600006103516 248 113 95
0.791978359222412 -0.373245716094971 2.48400020599365 246 111 93
0.797073304653168 -0.372475981712341 2.47900009155273 243 108 90
0.802789986133575 -0.372007220983505 2.4760000705719 249 114 96
0.808817625045776 -0.371689110994339 2.4740002155304 249 114 96
0.816152930259705 -0.371972262859344 2.4760000705719 248 114 96
0.82349956035614 -0.372255861759186 2.47800016403198 249 117 101
0.829517245292664 -0.371939033269882 2.4760000705719 255 126 108
0.835524439811707 -0.37162259221077 2.4740002155304 252 122 104
0.842542290687561 -0.371757179498672 2.47500014305115 251 126 107
0.850252449512482 -0.372192651033401 2.47800016403198 252 127 108
0.856596112251282 -0.372027814388275 2.47700023651123 255 130 111
0.862934708595276 -0.371863394975662 2.4760000705719 253 128 109
0.868917524814606 -0.371549338102341 2.4740002155304 255 130 111
0.876659750938416 -0.371986657381058 2.47700023651123 254 129 109
0.882992386817932 -0.371823757886887 2.4760000705719 255 133 113
0.889679729938507 -0.371811598539352 2.4760000705719 255 136 116
0.897816061973572 -0.372400611639023 2.48000001907349 255 134 113
0.9052454829216 -0.372689813375473 2.48200011253357 255 132 113
0.911216974258423 -0.372378945350647 2.48000001907349 255 140 121
0.915698230266571 -0.371468156576157 2.4740002155304 255 135 116
0.922757923603058 -0.371608912944794 2.47500014305115 255 138 119
0.9301997423172 -0.37190043926239 2.47700023651123 255 135 116
0.936518788337708 -0.371742129325867 2.4760000705719 255 137 118
0.943214774131775 -0.371734619140625 2.4760000705719 255 138 119
0.950295746326447 -0.371877878904343 2.47700023651123 255 138 119
0.956997334957123 -0.371871680021286 2.47700023651123 255 140 119
0.962922036647797 -0.371565818786621 2.47500014305115 255 138 117
0.970012962818146 -0.371711045503616 2.4760000705719 255 141 120
0.97789990901947 -0.372157245874405 2.47900009155273 255 142 121
0.984613120555878 -0.372153788805008 2.47900009155273 255 144 123
0.991328299045563 -0.372151017189026 2.47900009155273 255 145 124
0.998045325279236 -0.372148990631104 2.47900009155273 255 148 127
1.00435900688171 -0.371997624635696 2.47800016403198 255 148 127
1.01026117801666 -0.37169685959816 2.4760000705719 255 148 127
1.01697611808777 -0.371697157621384 2.4760000705719 255 145 124
1.02369332313538 -0.371698170900345 2.4760000705719 255 149 129
1.02999663352966 -0.371549934148788 2.47500014305115 255 149 129
1.03629684448242 -0.371402531862259 2.4740002155304 255 143 123
1.04175090789795 -0.370955646038055 2.47100019454956 255 149 129
1.0471910238266 -0.370509624481201 2.46800017356873 255 147 127
1.05389869213104 -0.370514839887619 2.46800017356873 255 151 131
1.06232786178589 -0.371121466159821 2.47200012207031 255 153 132
1.06905198097229 -0.371128469705582 2.47200012207031 255 149 127
1.07490849494934 -0.370836079120636 2.47000002861023 255 151 130
1.08163273334503 -0.370844900608063 2.47000002861023 255 156 135
1.08791959285736 -0.370704501867294 2.46900010108948 255 153 132
1.09509086608887 -0.370865315198898 2.47000002861023 253 152 131
1.10316288471222 -0.371327459812164 2.47300004959106 253 152 131
1.11125469207764 -0.371790558099747 2.4760000705719 255 160 137
1.11756026744843 -0.371654093265533 2.47500014305115 255 161 136
1.12250101566315 -0.371068120002747 2.47100019454956 255 160 133
1.12650954723358 -0.370182693004608 2.46500015258789 255 162 139
1.13278782367706 -0.370049238204956 2.46400022506714 255 160 139
1.13860189914703 -0.369766533374786 2.46200013160706 255 168 151
1.14487433433533 -0.369635164737701 2.4610002040863 255 166 150
0.772232413291931 -0.383575618267059 2.507000207901 230 120 110
0.775268733501434 -0.381719619035721 2.49500012397766 236 108 92
0.778867125511169 -0.380170047283173 2.4850001335144 249 117 101
0.782727599143982 -0.378773987293243 2.4760000705719 242 107 89
0.789409041404724 -0.378755182027817 2.4760000705719 244 110 92
0.795125842094421 -0.378277808427811 2.47300004959106 248 113 95
0.801150977611542 -0.377953797578812 2.47100019454956 241 106 88
0.806838631629944 -0.377477288246155 2.46800017356873 246 112 94
0.813828587532043 -0.377612948417664 2.46900010108948 254 120 102
0.820824325084686 -0.377749055624008 2.47000002861023 248 116 98
0.826820850372314 -0.377426773309708 2.46800017356873 248 118 100
0.833144545555115 -0.377257823944092 2.46700000762939 250 120 102
0.839122831821442 -0.376936405897141 2.46500015258789 250 125 106
0.84714949131012 -0.377532988786697 2.46900010108948 252 127 108
0.852777600288391 -0.377059638500214 2.46600008010864 253 128 109
0.86013263463974 -0.3773512840271 2.46800017356873 254 129 110
0.865391969680786 -0.376726120710373 2.46400022506714 254 129 110
0.873461544513702 -0.377324521541595 2.46800017356873 252 127 107
0.879770398139954 -0.377158999443054 2.46700000762939 255 133 113
0.886433959007263 -0.377146899700165 2.46700000762939 255 136 116
0.893460512161255 -0.377288311719894 2.46800017356873 255 135 115
0.900128722190857 -0.377277344465256 2.46800017356873 255 135 114
0.906430244445801 -0.377113997936249 2.46700000762939 255 137 118
