-0.142798513174057 -0.407255500555038 2.39300012588501 255 141 97
-0.13629038631916 -0.407265037298203 2.39300012588501 255 107 69
-0.129836037755013 -0.407444298267365 2.39400005340576 247 91 56
-0.123272806406021 -0.407282829284668 2.39300012588501 243 85 58
-0.116812206804752 -0.407461285591125 2.39400005340576 237 77 54
-0.110161475837231 -0.406958431005478 2.39100003242493 241 75 51
-0.103700138628483 -0.407136082649231 2.39200019836426 234 65 45
-0.0972330123186111 -0.407313197851181 2.39300012588501 248 80 65
-0.0910634249448776 -0.408851683139801 2.40200018882751 248 86 75
-0.0849149227142334 -0.410730123519897 2.41300010681152 198 87 93
-0.531648814678192 -0.407375752925873 2.36300015449524 187 69 62
-0.525714099407196 -0.407745033502579 2.36500000953674 214 74 69
-0.519767999649048 -0.408114403486252 2.36700010299683 221 72 64
-0.514027118682861 -0.40865620970726 2.37000012397766 223 74 64
-0.506984114646912 -0.40816342830658 2.36700010299683 224 73 63
-0.500167965888977 -0.407842963933945 2.36500000953674 222 71 63
-0.493779420852661 -0.40786737203598 2.36500000953674 221 68 60
-0.487802177667618 -0.408236652612686 2.36700010299683 229 73 66
-0.481406509876251 -0.408260971307755 2.36700010299683 225 65 58
-0.475411385297775 -0.408630162477493 2.36900019645691 217 57 50
-0.469404548406601 -0.408999264240265 2.37100005149841 226 64 57
-0.462800264358521 -0.408850908279419 2.37000012397766 230 68 59
-0.456007897853851 -0.408529788255692 2.36800003051758 224 64 55
-0.449225515127182 -0.408208608627319 2.36600017547607 228 69 56
-0.442640215158463 -0.408059775829315 2.36500000953674 233 72 59
-0.436797261238098 -0.408600986003876 2.36800003051758 229 69 53
-0.430573701858521 -0.408797025680542 2.36900019645691 223 61 48
-0.42452284693718 -0.409165471792221 2.37100005149841 233 71 58
-0.417931318283081 -0.409016072750092 2.37000012397766 228 65 56
-0.411865174770355 -0.409384310245514 2.37200021743774 231 68 59
-0.405787289142609 -0.40975233912468 2.37400007247925 228 62 56
-0.399361282587051 -0.409775048494339 2.37400007247925 233 68 59
-0.392934381961823 -0.409797579050064 2.37400007247925 232 65 56
-0.386669307947159 -0.40999248623848 2.375 227 60 51
-0.380878329277039 -0.410705208778381 2.37900018692017 238 69 60
-0.374277770519257 -0.410554468631744 2.37800002098084 238 68 62
-0.36752712726593 -0.410230934619904 2.37600016593933 234 64 58
-0.361090362071991 -0.410252392292023 2.37600016593933 234 65 56
-0.355100452899933 -0.410791635513306 2.37900018692017 244 75 65
-0.348653793334961 -0.410812646150589 2.37900018692017 241 72 60
-0.341918528079987 -0.41048800945282 2.37700009346008 246 75 63
-0.335898995399475 -0.411026626825333 2.38000011444092 242 71 59
-0.329308569431305 -0.410874158143997 2.37900018692017 239 66 56
-0.322587043046951 -0.410548686981201 2.37700009346008 245 69 63
-0.315742522478104 -0.410050183534622 2.37400007247925 245 68 64
-0.309434592723846 -0.410242289304733 2.375 239 62 58
-0.302992731332779 -0.410261362791061 2.375 244 66 61
-0.296675086021423 -0.41045293211937 2.37600016593933 245 67 62
-0.290595442056656 -0.410989671945572 2.37900018692017 248 69 61
-0.284140408039093 -0.411007910966873 2.37900018692017 246 67 59
-0.277684539556503 -0.411025762557983 2.37900018692017 241 62 54
-0.270999908447266 -0.41069769859314 2.37700009346008 242 63 55
-0.264770567417145 -0.41106054186821 2.37900018692017 246 67 59
-0.258421003818512 -0.411250203847885 2.38000011444092 244 67 59
-0.252065271139145 -0.411439508199692 2.38100004196167 248 70 65
-0.245393976569176 -0.411110132932663 2.37900018692017 254 73 72
-0.238933637738228 -0.411125987768173 2.37900018692017 250 67 66
-0.232472628355026 -0.411141484975815 2.37900018692017 250 62 65
-0.226105943322182 -0.411329418420792 2.38000011444092 255 68 69
-0.219548553228378 -0.411171317100525 2.37900018692017 247 65 60
-0.213175103068352 -0.411358535289764 2.38000011444092 247 137 76
-0.206795558333397 -0.411545395851135 2.38100004196167 207 121 45
-0.200409963726997 -0.411731898784637 2.382000207901 203 101 41
-0.193855464458466 -0.411572247743607 2.38100004196167 207 89 32
-0.187541931867599 -0.411930829286575 2.38300013542175 220 69 21
-0.181140959262848 -0.412116169929504 2.3840000629425 222 67 25
-0.174733981490135 -0.412301123142242 2.38500022888184 227 64 29
-0.168109387159348 -0.411967009305954 2.38300013542175 234 63 34
-0.16169860959053 -0.412151128053665 2.3840000629425 252 81 51
-0.155151695013046 -0.411989092826843 2.38300013542175 251 77 59
-0.148796901106834 -0.412345349788666 2.38500022888184 252 80 64
-0.142490386962891 -0.412873983383179 2.38800001144409 246 71 57
-0.135939314961433 -0.412710666656494 2.38700008392334 255 79 67
-0.129339039325714 -0.412374049425125 2.38500022888184 251 75 61
-0.122800700366497 -0.412209868431091 2.3840000629425 255 83 65
-0.116413801908493 -0.412563979625702 2.38600015640259 255 82 66
-0.110015645623207 -0.412917673587799 2.38800001144409 255 84 72
-0.10360623896122 -0.413270950317383 2.39000010490417 251 75 67
-0.0973887741565704 -0.414488404989243 2.3970000743866 249 88 85
-0.0912845358252525 -0.416397124528885 2.40800023078918 210 76 78
-0.523244559764862 -0.412216037511826 2.35400009155273 207 67 62
-0.517767190933228 -0.412941038608551 2.35800004005432 220 76 69
-0.512267470359802 -0.413666188716888 2.36200022697449 222 75 64
-0.505674481391907 -0.413515627384186 2.36100006103516 220 69 61
-0.498874634504318 -0.413189858198166 2.35900020599365 225 74 66
-0.492711097002029 -0.413389533758163 2.3600001335144 221 65 58
-0.48674738407135 -0.413764327764511 2.36200022697449 226 68 62
-0.480568677186966 -0.413963884115219 2.36300015449524 224 61 56
-0.474183082580566 -0.413988262414932 2.36300015449524 223 61 54
-0.467598646879196 -0.413837343454361 2.36200022697449 229 67 60
-0.461018800735474 -0.413686275482178 2.36100006103516 231 69 60
-0.454058319330215 -0.413184642791748 2.35800004005432 229 68 57
-0.447872668504715 -0.413383811712265 2.35900020599365 234 73 60
-0.441119253635406 -0.413057088851929 2.35700011253357 231 71 55
-0.435298055410385 -0.413606524467468 2.3600001335144 232 70 57
-0.42891451716423 -0.413630098104477 2.3600001335144 232 70 57
-0.422709167003632 -0.413828760385513 2.36100006103516 231 69 58
-0.416144788265228 -0.413676738739014 2.3600001335144 225 60 51
-0.410453081130981 -0.414401024580002 2.36400008201599 235 69 63
-0.404738903045654 -0.4151251912117 2.36800003051758 234 69 60
-0.397992879152298 -0.414797395467758 2.36600017547607 228 62 56
-0.391422301530838 -0.414644628763199 2.36500000953674 231 64 55
-0.385344654321671 -0.41501772403717 2.36700010299683 237 68 59
-0.379735559225082 -0.415916681289673 2.37200021743774 235 66 57
-0.372839450836182 -0.415412694215775 2.36900019645691 238 66 58
-0.366113394498825 -0.415083765983582 2.36700010299683 239 67 59
-0.359549224376678 -0.414929896593094 2.36600017547607 239 67 59
-0.353735953569412 -0.415652751922607 2.37000012397766 238 66 58
-0.347313940525055 -0.41567388176918 2.37000012397766 241 70 60
-0.340459495782852 -0.415168523788452 2.36700010299683 242 71 61
-0.33432611823082 -0.415539920330048 2.36900019645691 245 72 62
-0.328319519758224 -0.416086494922638 2.37200021743774 240 66 58
-0.321888625621796 -0.416106522083282 2.37200021743774 244 68 62
-0.315057992935181 -0.415600061416626 2.36900019645691 245 68 64
-0.308503329753876 -0.415444076061249 2.36800003051758 244 67 63
-0.302080810070038 -0.415463238954544 2.36800003051758 242 64 59
-0.295907229185104 -0.415833055973053 2.37000012397766 241 63 58
-0.289721995592117 -0.416202574968338 2.37200021743774 245 65 60
-0.283286273479462 -0.416220873594284 2.37200021743774 254 75 67
-0.276966452598572 -0.416414320468903 2.3730001449585 250 71 63
-0.270070463418961 -0.415729999542236 2.36900019645691 247 67 63
-0.263751834630966 -0.415922731161118 2.37000012397766 248 65 62
-0.257209926843643 -0.415764272212982 2.36900019645691 247 64 61
-0.251201957464218 -0.416482895612717 2.3730001449585 253 70 67
-0.244655892252922 -0.416323661804199 2.37200021743774 251 66 65
-0.238315343856812 -0.416515111923218 2.3730001449585 251 68 67
-0.231871008872986 -0.416530698537827 2.3730001449585 248 65 62
-0.225520953536034 -0.416721433401108 2.37400007247925 254 71 70
-0.218980252742767 -0.416560769081116 2.3730001449585 251 68 65
-0.212354779243469 -0.41622406244278 2.37100005149841 251 69 62
-0.206173732876778 -0.416764795780182 2.37400007247925 250 69 60
-0.199891686439514 -0.417129665613174 2.37600016593933 255 75 68
-0.193516731262207 -0.417318522930145 2.37700009346008 253 72 63
-0.187135756015778 -0.41750705242157 2.37800002098084 255 74 65
-0.18059678375721 -0.417344003915787 2.37700009346008 250 66 61
-0.173989459872246 -0.417004972696304 2.375 252 67 64
-0.167463019490242 -0.416841059923172 2.37400007247925 255 73 66
-0.160941481590271 -0.416676819324493 2.3730001449585 255 73 64
-0.154620200395584 -0.417038857936859 2.375 254 70 63
-0.148100391030312 -0.416873723268509 2.37400007247925 255 75 70
-0.141824215650558 -0.417410612106323 2.37700009346008 255 76 71
-0.13524654507637 -0.417069017887115 2.375 255 69 64
-0.128516644239426 -0.416200190782547 2.37000012397766 252 70 65
-0.122122570872307 -0.416384547948837 2.37100005149841 253 75 63
-0.115869030356407 -0.417095363140106 2.375 251 75 61
-0.10991582274437 -0.419035077095032 2.38600015640259 244 79 84
-0.103729024529457 -0.420271962881088 2.39300012588501 215 96 111
-0.509857296943665 -0.418098658323288 2.3510000705719 197 72 63
-0.502865612506866 -0.417589664459229 2.34800004959106 220 68 62
-0.49694687128067 -0.417970031499863 2.35000014305115 224 68 62
-0.491016387939453 -0.418350249528885 2.35199999809265 225 69 62
-0.485280364751816 -0.418908387422562 2.35500001907349 222 64 57
-0.478917300701141 -0.418932884931564 2.35500001907349 224 64 57
-0.47215211391449 -0.41860157251358 2.35300016403198 224 62 53
-0.465792745351791 -0.418625831604004 2.35300016403198 225 63 54
-0.459237277507782 -0.418472111225128 2.35199999809265 228 67 56
-0.45268639922142 -0.418318331241608 2.3510000705719 223 62 49
-0.446140080690384 -0.418164402246475 2.35000014305115 227 67 51
-0.439598321914673 -0.418010324239731 2.3490002155304 232 71 55
-0.43379881978035 -0.418567925691605 2.35199999809265 231 69 56
-0.427800536155701 -0.418947517871857 2.35400009155273 231 69 58
-0.421253532171249 -0.418793082237244 2.35300016403198 228 66 55
-0.414710909128189 -0.418638348579407 2.35199999809265 232 70 59
-0.408693820238113 -0.419017553329468 2.35400009155273 232 67 57
-0.402665019035339 -0.419396638870239 2.35600018501282 232 67 57
-0.395951628684998 -0.419063419103622 2.35400009155273 235 70 60
-0.389744758605957 -0.419264137744904 2.35500001907349 237 70 60
-0.383694350719452 -0.41964265704155 2.35700011253357 241 72 62
-0.378112524747849 -0.420555263757706 2.36200022697449 238 66 58
-0.371243745088577 -0.420043170452118 2.35900020599365 233 61 53
-0.364699602127075 -0.419886916875839 2.35800004005432 233 61 53
-0.35831207036972 -0.419908553361893 2.35800004005432 240 68 60
-0.352222174406052 -0.420286178588867 2.3600001335144 234 62 54
-0.345974028110504 -0.420485436916351 2.36100006103516 241 69 61
-0.339144259691238 -0.419972002506256 2.35800004005432 247 73 65
-0.332894444465637 -0.420170813798904 2.35900020599365 239 65 57
-0.326776742935181 -0.420547425746918 2.36100006103516 241 65 57
-0.320783078670502 -0.421101957559586 2.36400008201599 243 67 61
-0.31410738825798 -0.420765548944473 2.36200022697449 247 70 66
-0.307571977376938 -0.420606940984726 2.36100006103516 243 66 62
-0.30104124546051 -0.4204480946064 2.3600001335144 244 66 61
-0.295014441013336 -0.421001493930817 2.36300015449524 244 66 61
-0.288848519325256 -0.421376556158066 2.36500000953674 249 69 64
-0.28279036283493 -0.421929448843002 2.36800003051758 249 70 62
-0.276365011930466 -0.421947509050369 2.36800003051758 243 66 58
-0.269368946552277 -0.421074330806732 2.36300015449524 245 65 61
-0.262955695390701 -0.421091735363007 2.36300015449524 252 69 68
-0.256215959787369 -0.420574128627777 2.3600001335144 248 65 62
-0.250338613986969 -0.421481847763062 2.36500000953674 251 68 67
-0.243814617395401 -0.421320021152496 2.36400008201599 252 67 66
-0.237295299768448 -0.421157777309418 2.36300015449524 247 62 61
-0.231171607971191 -0.421708166599274 2.36600017547607 250 66 61
-0.224840939044952 -0.421901643276215 2.36700010299683 255 71 68
-0.218319624662399 -0.42173832654953 2.36600017547607 255 73 68
-0.211444854736328 -0.420861572027206 2.36100006103516 252 70 63
-0.205291390419006 -0.421410501003265 2.36400008201599 255 77 70
-0.199120998382568 -0.421959072351456 2.36700010299683 253 72 63
-0.192608073353767 -0.421794146299362 2.36600017547607 255 75 68
-0.186178684234619 -0.421807110309601 2.36600017547607 255 71 66
-0.179748713970184 -0.421819716691971 2.36600017547607 255 72 67
-0.173244968056679 -0.421653568744659 2.36500000953674 254 68 63
-0.166816666722298 -0.421665340662003 2.36500000953674 252 66 61
-0.160387799143791 -0.42167666554451 2.36500000953674 255 69 64
-0.154023572802544 -0.421865910291672 2.36600017547607 255 73 68
-0.147591054439545 -0.421876460313797 2.36600017547607 255 73 70
-0.141277372837067 -0.422243177890778 2.36800003051758 255 71 70
-0.134724617004395 -0.421896249055862 2.36600017547607 255 72 71
-0.128073871135712 -0.42119225859642 2.36200022697449 253 75 70
-0.121753469109535 -0.421557635068893 2.36400008201599 255 81 73
-0.115958444774151 -0.423884242773056 2.37700009346008 249 83 78
-0.501127779483795 -0.422495454549789 2.34000015258789 208 59 55
-0.4950190782547 -0.422700613737106 2.34100008010864 220 66 62
-0.489113032817841 -0.423086374998093 2.34300017356873 225 69 62
-0.483607411384583 -0.423833280801773 2.34700012207031 224 68 61
-0.477265983819962 -0.423857808113098 2.34700012207031 224 64 57
-0.470522463321686 -0.42352107167244 2.34500002861023 228 68 59
-0.463590979576111 -0.423003643751144 2.34200000762939 230 69 58
-0.45745587348938 -0.423208504915237 2.34300017356873 229 68 57
-0.45131453871727 -0.423413336277008 2.34400010108948 224 63 50
-0.444977015256882 -0.423437386751175 2.34400010108948 232 71 55
-0.438264459371567 -0.423100024461746 2.34200000762939 232 70 57
-0.432299643754959 -0.423485219478607 2.34400010108948 227 65 52
-0.426504850387573 -0.424050956964493 2.34700012207031 234 72 61
-0.420513927936554 -0.424435883760452 2.3490002155304 231 68 59
-0.413806080818176 -0.424097955226898 2.34700012207031 227 65 54
-0.407455384731293 -0.424121260643005 2.34700012207031 236 74 63
-0.401274740695953 -0.424325048923492 2.34800004959106 239 74 64
-0.394919604063034 -0.424347966909409 2.34800004959106 233 68 58
-0.388729184865952 -0.424551516771317 2.3490002155304 240 74 61
-0.3825324177742 -0.424754768610001 2.35000014305115 232 63 51
-0.376489460468292 -0.425138682126999 2.35199999809265 246 75 65
-0.369805365800858 -0.42479932308197 2.35000014305115 241 70 60
-0.3631312251091 -0.424459666013718 2.34800004959106 238 67 57
-0.35692298412323 -0.424662232398987 2.3490002155304 242 69 59
-0.350708454847336 -0.42486447095871 2.35000014305115 240 66 58
-0.344487637281418 -0.425066500902176 2.3510000705719 242 68 60
-0.337972849607468 -0.424906611442566 2.35000014305115 242 68 60
-0.331744968891144 -0.425108164548874 2.3510000705719 243 69 61
-0.325649231672287 -0.425490319728851 2.35300016403198 247 71 63
-0.319406121969223 -0.425691306591034 2.35400009155273 245 68 64
-0.312624901533127 -0.425168752670288 2.3510000705719 243 66 62
-0.306249856948853 -0.425188332796097 2.3510000705719 240 62 58
-0.300129175186157 -0.425569415092468 2.35300016403198 244 66 61
-0.293996840715408 -0.425950169563293 2.35500001907349 246 68 63
-0.287975043058395 -0.426511585712433 2.35800004005432 246 67 59
-0.281697362661362 -0.426710963249207 2.35900020599365 248 69 61
-0.275530129671097 -0.427090853452683 2.36100006103516 244 67 59
-0.26855343580246 -0.426204174757004 2.35600018501282 251 71 66
-0.262048184871674 -0.426040709018707 2.35500001907349 248 67 66
-0.255439132452011 -0.425695985555649 2.35300016403198 251 68 65
-0.249475285410881 -0.426436483860016 2.35700011253357 244 61 60
-0.242663949728012 -0.425729155540466 2.35300016403198 251 66 65
-0.236375689506531 -0.425926119089127 2.35400009155273 254 69 66
-0.230374455451965 -0.426665604114532 2.35800004005432 251 67 62
-0.224350869655609 -0.427404791116714 2.36200022697449 250 65 62
-0.21765898168087 -0.426876932382584 2.35900020599365 253 69 62
-0.210803657770157 -0.425986707210541 2.35400009155273 254 72 65
-0.204582720994949 -0.426362812519073 2.35600018501282 255 75 68
-0.198434427380562 -0.42691957950592 2.35900020599365 254 72 65
-0.192025020718575 -0.426932960748672 2.35900020599365 253 71 64
-0.185536369681358 -0.426764994859695 2.35800004005432 255 73 70
-0.179052606225014 -0.426596701145172 2.35700011253357 255 70 67
-0.17264698445797 -0.426608920097351 2.35700011253357 255 68 65
-0.166240811347961 -0.426620721817017 2.35700011253357 254 67 64
-0.159698501229286 -0.426270127296448 2.35500001907349 255 71 66
-0.153426975011826 -0.42664310336113 2.35700011253357 255 71 66
-0.147206455469131 -0.427196681499481 2.3600001335144 255 74 73
-0.141088470816612 -0.42811194062233 2.36500000953674 252 64 65
-0.134658187627792 -0.42812168598175 2.36500000953674 255 70 71
-0.128173261880875 -0.427950024604797 2.36400008201599 250 79 77
-0.122002363204956 -0.428864032030106 2.36900019645691 248 94 88
-0.116681940853596 -0.433036327362061 2.39200019836426 174 43 49
-0.493514329195023 -0.427748382091522 2.33400011062622 159 63 55
-0.487418413162231 -0.427956312894821 2.33500003814697 215 65 59
-0.48152232170105 -0.428347498178482 2.33700013160706 229 76 68
-0.475004702806473 -0.428188800811768 2.3360002040863 228 74 60
-0.468290954828262 -0.427846640348434 2.33400011062622 226 72 58
-0.461983114480972 -0.42787104845047 2.33400011062622 230 72 56
-0.45586970448494 -0.428078681230545 2.33500003814697 230 71 58
-0.450135141611099 -0.428652971982956 2.33800005912781 226 67 56
-0.443813979625702 -0.42867711186409 2.33800005912781 232 71 60
-0.437304973602295 -0.42851784825325 2.33700013160706 233 71 60
-0.430984884500504 -0.428541719913483 2.33700013160706 229 66 57
-0.425572544336319 -0.429482400417328 2.34200000762939 229 66 57
-0.419595241546631 -0.429872840642929 2.34400010108948 235 72 63
-0.412901103496552 -0.429529577493668 2.34200000762939 231 69 58
-0.406043380498886 -0.42900276184082 2.33900022506714 232 70 57
-0.399884551763535 -0.429209351539612 2.34000015258789 234 73 57
-0.393719404935837 -0.429415702819824 2.34100008010864 230 66 51
-0.387713551521301 -0.429805457592011 2.34300017356873 241 75 60
-0.381370484828949 -0.429828077554703 2.34300017356873 238 70 55
-0.374866455793381 -0.429667055606842 2.34200000762939 236 67 55
-0.36852440237999 -0.429689288139343 2.34200000762939 240 69 57
-0.361717611551285 -0.429160922765732 2.33900022506714 239 68 56
-0.355381995439529 -0.429182678461075 2.33900022506714 239 68 56
-0.348896235227585 -0.429020643234253 2.33800005912781 245 72 62
-0.343001216650009 -0.429592400789261 2.34100008010864 246 72 64
-0.336945295333862 -0.429980516433716 2.34300017356873 240 64 56
-0.331159919500351 -0.430735379457474 2.34700012207031 245 69 63
-0.324936866760254 -0.430939525365829 2.34800004959106 243 67 61
-0.318571895360947 -0.430959761142731 2.34800004959106 242 66 60
-0.311674267053604 -0.430245578289032 2.34400010108948 245 67 62
-0.305318564176559 -0.430265307426453 2.34400010108948 241 63 59
-0.299217134714127 -0.430651903152466 2.34600019454956 246 66 61
-0.29297924041748 -0.430854588747025 2.34700012207031 245 63 58
-0.286857277154922 -0.431240558624268 2.3490002155304 245 66 58
-0.280484914779663 -0.43125906586647 2.3490002155304 247 68 60
-0.274345129728317 -0.431644439697266 2.3510000705719 247 68 60
-0.267395943403244 -0.43074432015419 2.34600019454956 249 69 65
-0.260806947946548 -0.430394560098648 2.34400010108948 254 71 70
-0.254553735256195 -0.430595338344574 2.34500002861023 250 67 64
-0.248506039381027 -0.431163012981415 2.34800004959106 245 62 61
-0.242132037878036 -0.431179493665695 2.34800004959106 251 68 67
-0.235656931996346 -0.431012004613876 2.34700012207031 248 65 62
-0.229577347636223 -0.431578725576401 2.35000014305115 250 68 63
-0.223480820655823 -0.432145118713379 2.35300016403198 251 67 62
-0.216813758015633 -0.431609153747559 2.35000014305115 254 70 65
-0.210072860121727 -0.430889159440994 2.34600019454956 249 65 58
-0.203613519668579 -0.430719673633575 2.34500002861023 250 66 59
-0.197495475411415 -0.431284606456757 2.34800004959106 255 72 67
-0.191360577940941 -0.431849122047424 2.3510000705719 254 70 65
-0.184972748160362 -0.431862205266953 2.3510000705719 255 74 69
-0.178660303354263 -0.432058572769165 2.35199999809265 255 78 73
-0.17234194278717 -0.432254642248154 2.35300016403198 251 65 60
-0.165735483169556 -0.431715369224548 2.35000014305115 255 71 66
-0.159280434250832 -0.431543111801147 2.3490002155304 255 68 65
-0.152895450592041 -0.431554138660431 2.3490002155304 255 67 67
-0.146946579217911 -0.432850807905197 2.35600018501282 254 67 66
-0.140959173440933 -0.43414705991745 2.36300015449524 252 71 80
-0.134762495756149 -0.434891790151596 2.36700010299683 251 83 95
-0.485515177249908 -0.432596325874329 2.32600021362305 198 72 67
-0.479231327772141 -0.432620942592621 2.32600021362305 220 72 64
-0.473150074481964 -0.43283149600029 2.3270001411438 230 77 57
-0.467062681913376 -0.433042019605637 2.32800006866455 227 75 59
-0.46077111363411 -0.433066487312317 2.32800006866455 231 75 59
-0.454674005508423 -0.433276891708374 2.3289999961853 231 73 57
-0.448763221502304 -0.433673292398453 2.33100008964539 229 70 57
-0.442650943994522 -0.43388357758522 2.33200001716614 231 70 59
-0.436345338821411 -0.43390765786171 2.33200001716614 236 73 64
-0.429854482412338 -0.433745563030243 2.33100008964539 231 68 59
-0.424095094203949 -0.434327691793442 2.33400011062622 230 67 58
-0.417960554361343 -0.434537500143051 2.33500003814697 235 72 63
-0.41164356470108 -0.434561103582382 2.33500003814697 231 69 58
-0.404804885387421 -0.434026151895523 2.33200001716614 235 71 58
-0.398836106061935 -0.434421718120575 2.33400011062622 237 73 60
-0.392855584621429 -0.434817016124725 2.3360002040863 227 63 48
-0.386697947978973 -0.435026049613953 2.33700013160706 236 70 57
-0.38020858168602 -0.434862703084946 2.3360002040863 239 70 58
-0.373883783817291 -0.434885174036026 2.3360002040863 236 67 57
-0.367400825023651 -0.434721291065216 2.33500003814697 235 64 52
-0.360767811536789 -0.434371024370193 2.33300018310547 239 68 56
-0.354296743869781 -0.434206604957581 2.33200001716614 238 67 55
-0.347830295562744 -0.434042006731033 2.33100008964539 242 71 59
-0.341954439878464 -0.434621959924698 2.33400011062622 244 71 61
-0.335630089044571 -0.434643089771271 2.33400011062622 240 64 55
-0.329728245735168 -0.435222595930099 2.33700013160706 243 67 59
-0.323670983314514 -0.435615718364716 2.33900022506714 239 63 55
-0.317466348409653 -0.435822337865829 2.34000015258789 248 72 64
-0.310856640338898 -0.435469895601273 2.33800005912781 245 67 62
-0.304256975650787 -0.435117155313492 2.3360002040863 248 70 65
-0.298049986362457 -0.435322880744934 2.33700013160706 246 67 59
-0.291711956262589 -0.435342013835907 2.33700013160706 243 61 56
-0.28561744093895 -0.435733467340469 2.33900022506714 244 64 59
-0.279153108596802 -0.435565710067749 2.33800005912781 252 72 67
-0.272926837205887 -0.435770273208618 2.33900022506714 253 73 68
-0.266352444887161 -0.435415536165237 2.33700013160706 242 59 56
-0.259899497032166 -0.435246825218201 2.3360002040863 243 60 57
-0.253668338060379 -0.435450315475464 2.33700013160706 241 58 55
-0.247325226664543 -0.435467183589935 2.33700013160706 248 65 64
-0.241084516048431 -0.435670018196106 2.33800005912781 252 69 68
-0.234837755560875 -0.435872584581375 2.33900022506714 255 75 72
-0.228877902030945 -0.436633795499802 2.34300017356873 253 71 66
-0.222800731658936 -0.437208354473114 2.34600019454956 252 68 63
-0.216245338320732 -0.436850696802139 2.34400010108948 254 70 65
-0.209521144628525 -0.436119943857193 2.34000015258789 255 69 64
-0.203078508377075 -0.435947865247726 2.33900022506714 255 70 63
-0.196724817156792 -0.435961782932281 2.33900022506714 252 66 61
-0.190614715218544 -0.436534434556961 2.34200000762939 253 69 64
-0.184409096837044 -0.436920374631882 2.34400010108948 255 73 68
-0.178192064166069 -0.437305957078934 2.34600019454956 254 70 65
-0.171670645475388 -0.436945468187332 2.34400010108948 255 73 68
-0.165089100599289 -0.43639811873436 2.34100008010864 255 71 66
-0.158591136336327 -0.436036795377731 2.33900022506714 255 71 70
-0.152689337730408 -0.43735283613205 2.34600019454956 249 63 64
-0.146998479962349 -0.439414203166962 2.35700011253357 250 70 75
-0.141426295042038 -0.4420345723629 2.37100005149841 230 77 89
-0.471905529499054 -0.437990874052048 2.32100009918213 220 74 66
-0.465433210134506 -0.437826782464981 2.32000017166138 224 75 57
-0.459559112787247 -0.438228666782379 2.32200002670288 228 67 54
-0.453478395938873 -0.438441902399063 2.32300019264221 228 66 53
-0.447583854198456 -0.438843727111816 2.32500004768372 228 66 55
-0.441298067569733 -0.43886798620224 2.32500004768372 227 64 55
-0.435011506080627 -0.438892126083374 2.32500004768372 230 67 58
-0.428908556699753 -0.439104974269867 2.32600021362305 231 68 59
-0.422981053590775 -0.439506441354752 2.32800006866455 232 70 59
-0.416504979133606 -0.439341485500336 2.3270001411438 233 71 60
-0.409680873155594 -0.438798666000366 2.32400012016296 234 72 61
-0.403045743703842 -0.438444435596466 2.32200002670288 241 74 64
-0.396933317184448 -0.438656568527222 2.32300019264221 234 68 55
-0.391319006681442 -0.439434975385666 2.3270001411438 232 63 51
-0.385185986757278 -0.43964684009552 2.32800006866455 234 65 55
-0.378883868455887 -0.439669549465179 2.32800006866455 237 66 56
-0.37274095416069 -0.439880967140198 2.3289999961853 235 64 54
-0.366434574127197 -0.439903348684311 2.3289999961853 238 67 55
-0.36012727022171 -0.439925491809845 2.3289999961853 241 70 58
-0.353363513946533 -0.439380764961243 2.32600021362305 243 73 58
-0.347062736749649 -0.439402401447296 2.32600021362305 242 70 55
-0.340907603502274 -0.439612686634064 2.3270001411438 248 73 59
-0.334314912557602 -0.439256012439728 2.32500004768372 244 69 57
-0.328014463186264 -0.439276933670044 2.32500004768372 239 62 54
-0.322128295898438 -0.439864337444305 2.32800006866455 243 66 58
-0.316225081682205 -0.440451562404633 2.33100008964539 246 66 61
-0.309906005859375 -0.440471708774567 2.33100008964539 247 67 62
-0.303195387125015 -0.439924597740173 2.32800006866455 247 65 60
-0.297010332345963 -0.44013312458992 2.3289999961853 250 68 63
-0.290819197893143 -0.440341383218765 2.33000016212463 247 65 60
-0.284499734640121 -0.440360307693481 2.33000016212463 246 64 59
-0.278298914432526 -0.440567851066589 2.33100008964539 250 68 63
-0.271858602762222 -0.440397173166275 2.33000016212463 250 67 64
-0.265650898218155 -0.440604090690613 2.33100008964539 252 69 66
-0.259437054395676 -0.440810739994049 2.33200001716614 249 65 60
-0.252999991178513 -0.440638989210129 2.33100008964539 252 67 64
-0.246673539280891 -0.440655946731567 2.33100008964539 247 64 61
-0.240346387028694 -0.440672546625137 2.33100008964539 255 75 72
-0.234118923544884 -0.440877825021744 2.33200001716614 252 72 67
-0.228178441524506 -0.441649913787842 2.3360002040863 251 71 66
-0.22193069756031 -0.441854506731033 2.33700013160706 253 71 64
-0.215676888823509 -0.442058742046356 2.33800005912781 253 69 62
-0.20905889570713 -0.441506266593933 2.33500003814697 255 75 66
-0.202456623315811 -0.440953373908997 2.33200001716614 255 71 62
-0.196038261055946 -0.440778255462646 2.33100008964539 255 70 61
-0.18978750705719 -0.440980911254883 2.33200001716614 255 71 64
-0.183766782283783 -0.441750526428223 2.3360002040863 255 72 67
-0.17741996049881 -0.441763252019882 2.3360002040863 251 67 62
-0.170999392867088 -0.441586494445801 2.33500003814697 255 77 69
-0.164513245224953 -0.441220253705978 2.33300018310547 253 77 71
-0.158512026071548 -0.442177414894104 2.33800005912781 242 83 80
-0.152938738465309 -0.444458067417145 2.35000014305115 230 92 93
-0.147486850619316 -0.447305858135223 2.36500000953674 173 69 90
-0.470457702875137 -0.442925661802292 2.31400012969971 252 157 152
-0.464004367589951 -0.442758917808533 2.31300020217896 202 62 57
-0.457555592060089 -0.442591965198517 2.31200003623962 226 66 57
-0.451501905918121 -0.442807883024216 2.31300020217896 233 71 60
-0.445442020893097 -0.443023711442947 2.31400012969971 231 64 54
-0.439375817775726 -0.443239361047745 2.31500005722046 228 66 55
-0.433116465806961 -0.443263530731201 2.31500005722046 235 73 62
-0.427593767642975 -0.444053471088409 2.31900000572205 232 70 59
-0.421321958303452 -0.444077461957932 2.31900000572205 230 68 57
-0.415049314498901 -0.444101274013519 2.31900000572205 230 68 57
-0.408247143030167 -0.44355046749115 2.31600022315979 233 71 58
-0.401980966329575 -0.443573951721191 2.31600022315979 230 63 53
-0.3957140147686 -0.443597227334976 2.31600022315979 232 66 53
-0.389950692653656 -0.444194972515106 2.31900000572205 234 65 53
-0.383839458227158 -0.444409549236298 2.32000017166138 237 68 58
-0.377884685993195 -0.444815427064896 2.32200002670288 238 67 57
-0.371278196573257 -0.444454938173294 2.32000017166138 241 70 58
-0.365153670310974 -0.44466894865036 2.32100009918213 239 68 56
-0.359022885560989 -0.444882690906525 2.32200002670288 239 68 56
-0.352733999490738 -0.444904625415802 2.32200002670288 245 73 58
-0.346295148134232 -0.444734811782837 2.32100009918213 246 74 59
-0.340153813362122 -0.444947898387909 2.32200002670288 241 66 52
-0.333431154489517 -0.44439423084259 2.31900000572205 242 67 55
-0.326865077018738 -0.444031924009323 2.31700015068054 240 63 55
-0.320724099874496 -0.444244205951691 2.31800007820129 247 70 62
-0.31471261382103 -0.444647967815399 2.32000017166138 243 63 58
-0.308556526899338 -0.444859772920609 2.32100009918213 246 66 61
-0.302133858203888 -0.444687992334366 2.32000017166138 244 64 59
-0.296098291873932 -0.445090860128403 2.32200002670288 244 62 57
-0.290051221847534 -0.445493549108505 2.32400012016296 247 65 60
-0.283870458602905 -0.445704191923141 2.32500004768372 248 65 62
-0.277325361967087 -0.445339441299438 2.32300019264221 249 67 62
-0.271023720502853 -0.445357799530029 2.32300019264221 252 70 65
-0.265063256025314 -0.445950984954834 2.32600021362305 255 73 68
-0.259085774421692 -0.44654381275177 2.3289999961853 251 69 64
-0.252548724412918 -0.446177750825882 2.3270001411438 252 70 65
-0.246021822094917 -0.445811241865158 2.32500004768372 249 66 63
-0.239608213305473 -0.44563615322113 2.32400012016296 255 73 68
-0.233400121331215 -0.445844173431396 2.32500004768372 248 68 63
-0.227283641695976 -0.446243613958359 2.3270001411438 255 76 68
-0.221060708165169 -0.44645094871521 2.32800006866455 255 75 68
-0.215016186237335 -0.447041451931 2.33100008964539 255 72 63
-0.208507135510445 -0.446672707796097 2.3289999961853 255 72 63
-0.202095195651054 -0.446495354175568 2.32800006866455 254 69 60
-0.195519879460335 -0.445933938026428 2.32500004768372 254 69 60
-0.189204454421997 -0.445947557687759 2.32500004768372 251 67 60
-0.183124452829361 -0.446536183357239 2.32800006866455 255 70 67
-0.177027627825737 -0.447124481201172 2.33100008964539 255 72 71
-0.170767515897751 -0.447328716516495 2.33200001716614 250 72 72
-0.164713010191917 -0.448108077049255 2.3360002040863 250 81 79
-0.159246399998665 -0.450613498687744 2.3490002155304 192 71 86
-0.455947935581207 -0.447288662195206 2.30400013923645 185 65 58
-0.449720740318298 -0.447313100099564 2.30400013923645 218 68 64
-0.444070190191269 -0.447919934988022 2.30700016021729 228 65 58
-0.437643527984619 -0.447750061750412 2.30599999427795 235 72 65
-0.431221485137939 -0.447580069303513 2.3050000667572 233 70 61
-0.425541609525681 -0.448186665773392 2.30800008773804 228 65 56
-0.419481307268143 -0.448404759168625 2.30900001525879 233 70 61
-0.413593828678131 -0.448817044496536 2.31100010871887 231 66 57
-0.406989634037018 -0.448452264070511 2.30900001525879 235 70 60
-0.400569021701813 -0.448281556367874 2.30800008773804 233 66 56
-0.394323885440826 -0.448304921388626 2.30800008773804 244 75 63
-0.388750553131104 -0.449105083942413 2.31200003623962 234 65 53
-0.382989287376404 -0.449710875749588 2.31500005722046 239 68 56
-0.377048254013062 -0.450122267007828 2.31700015068054 236 65 53
-0.369975388050079 -0.44917356967926 2.31200003623962 242 69 57
-0.363558113574982 -0.449001729488373 2.31100010871887 244 71 61
-0.357300013303757 -0.449023872613907 2.31100010871887 239 63 54
-0.351193100214005 -0.449240177869797 2.31200003623962 244 68 59
-0.345079958438873 -0.449456304311752 2.31300020217896 245 69 60
-0.339107036590576 -0.449866384267807 2.31500005722046 245 69 60
-0.332547396421433 -0.449499070644379 2.31300020217896 244 68 59
-0.325997829437256 -0.449131309986115 2.31100010871887 242 66 58
-0.320011734962463 -0.449540793895721 2.31300020217896 244 67 59
-0.313742786645889 -0.449561268091202 2.31300020217896 248 68 64
-0.30760595202446 -0.449775785207748 2.31400012969971 248 68 64
-0.301072299480438 -0.449406951665878 2.31200003623962 243 63 58
-0.295313775539398 -0.450204104185104 2.31600022315979 246 66 61
-0.289158463478088 -0.450417846441269 2.31700015068054 252 70 63
-0.2827527821064 -0.450242459774017 2.31600022315979 250 68 63
-0.276232451200485 -0.449872314929962 2.31400012969971 246 66 61
-0.270072221755981 -0.45008510351181 2.31500005722046 244 62 57
-0.264247685670853 -0.450880795717239 2.31900000572205 250 68 63
-0.258400827646255 -0.451676338911057 2.32300019264221 254 69 66
-0.252097427845001 -0.451693803071976 2.32300019264221 250 67 64
-0.245687544345856 -0.451516389846802 2.32200002670288 250 67 66
-0.239076212048531 -0.450949639081955 2.31900000572205 245 62 61
-0.232781678438187 -0.450966000556946 2.31900000572205 254 74 70
-0.226291194558144 -0.450593024492264 2.31700015068054 250 70 65
-0.220095753669739 -0.450803071260452 2.31800007820129 253 74 66
-0.214078769087791 -0.451401740312576 2.32100009918213 251 70 61
-0.207686811685562 -0.451222121715546 2.32000017166138 251 70 61
-0.201299697160721 -0.451042056083679 2.31900000572205 248 66 59
-0.194749251008034 -0.450472623109818 2.31600022315979 255 74 65
-0.188621401786804 -0.450875252485275 2.31800007820129 246 65 64
-0.182796791195869 -0.452055603265762 2.32400012016296 249 70 70
-0.176863074302673 -0.453041076660156 2.3289999961853 249 78 77
-0.171121388673782 -0.454609811306 2.33700013160706 193 84 100
-0.447939664125443 -0.451768964529037 2.29500007629395 174 68 60
-0.442313492298126 -0.45238384604454 2.29800009727478 224 68 62
-0.435911297798157 -0.452211320400238 2.29700016975403 229 66 61
-0.430074900388718 -0.452629178762436 2.29900002479553 226 60 54
-0.423858225345612 -0.452653259038925 2.29900002479553 229 66 59
-0.418004095554352 -0.453071027994156 2.30100011825562 234 68 62
-0.411780416965485 -0.453094810247421 2.30100011825562 233 65 59
-0.405732244253159 -0.453315436840057 2.30200004577637 236 68 62
-0.39915719628334 -0.45294514298439 2.30000019073486 233 66 56
-0.392933905124664 -0.452968537807465 2.30000019073486 240 74 61
-0.387214154005051 -0.453582555055618 2.3030002117157 238 69 57
-0.381477415561676 -0.45419642329216 2.30599999427795 239 69 54
-0.375398248434067 -0.454416334629059 2.30700016021729 243 72 60
-0.368512719869614 -0.45365110039711 2.3030002117157 241 68 58
-0.362277299165726 -0.453673511743546 2.3030002117157 239 65 57
-0.355731934309006 -0.453301727771759 2.30100011825562 240 64 58
-0.349804192781448 -0.453717738389969 2.3030002117157 239 63 57
-0.343715608119965 -0.453936487436295 2.30400013923645 241 65 57
-0.338060259819031 -0.454746156930923 2.30800008773804 243 67 59
-0.33209490776062 -0.455161541700363 2.31000018119812 242 66 57
-0.325412720441818 -0.454591512680054 2.30700016021729 246 70 62
-0.319022655487061 -0.454415172338486 2.30599999427795 245 68 60
-0.312637269496918 -0.454238593578339 2.3050000667572 249 69 65
-0.306389540433884 -0.45425882935524 2.3050000667572 252 72 68
-0.300141036510468 -0.45427879691124 2.3050000667572 245 65 60
-0.294529259204865 -0.455283880233765 2.31000018119812 247 67 62
-0.288390457630157 -0.455500334501266 2.31100010871887 250 71 63
-0.282123476266861 -0.455519437789917 2.31100010871887 249 70 62
-0.275378316640854 -0.45474973320961 2.30700016021729 249 70 62
-0.269120752811432 -0.454768121242523 2.30700016021729 248 66 59
-0.262976408004761 -0.454983294010162 2.30800008773804 253 71 66
-0.257048457860947 -0.455592513084412 2.31100010871887 255 71 68
-0.251103490591049 -0.45620134472847 2.31400012969971 247 62 59
-0.244824185967445 -0.456218421459198 2.31400012969971 248 63 62
-0.23833803832531 -0.455840826034546 2.31200003623962 255 76 75
-0.231962531805038 -0.455660074949265 2.31100010871887 255 74 71
-0.225494101643562 -0.455281645059586 2.30900001525879 249 69 64
-0.21932078897953 -0.455494523048401 2.31000018119812 252 73 65
-0.213141396641731 -0.455706864595413 2.31100010871887 255 73 66
-0.207045540213585 -0.456116169691086 2.31300020217896 255 79 71
-0.200677812099457 -0.455933392047882 2.31200003623962 254 73 64
-0.194399029016495 -0.455947488546371 2.31200003623962 253 74 65
-0.188363820314407 -0.45655283331871 2.31500005722046 243 69 69
-0.182783678174019 -0.458341121673584 2.32400012016296 247 82 86
-0.177761554718018 -0.461706936359406 2.34100008010864 185 48 63
-0.440749406814575 -0.456997931003571 2.29000020027161 206 64 59
-0.434368878602982 -0.456822603940964 2.28900003433228 226 70 64
-0.42818009853363 -0.45684677362442 2.28900003433228 232 66 60
-0.421806246042252 -0.456671237945557 2.28800010681152 237 67 61
-0.416345298290253 -0.4574935734272 2.29200005531311 233 65 59
-0.410146087408066 -0.457517385482788 2.29200005531311 238 70 64
-0.404122412204742 -0.457740724086761 2.29300022125244 240 72 66
-0.397224813699722 -0.456965684890747 2.28900003433228 237 70 61
-0.391714721918106 -0.4577876329422 2.29300022125244 236 69 59
-0.385846018791199 -0.45821014046669 2.29500007629395 240 71 59
-0.380131095647812 -0.458832204341888 2.29800009727478 241 70 58
-0.374073684215546 -0.459054708480835 2.29900002479553 241 70 58
-0.367370098829269 -0.458478361368179 2.2960000038147 239 66 56
-0.361311167478561 -0.458700567483902 2.29700016975403 239 65 59
-0.354782283306122 -0.458323389291763 2.29500007629395 246 69 65
-0.348719030618668 -0.458545058965683 2.2960000038147 242 65 61
-0.342798858880997 -0.458966314792633 2.29800009727478 243 67 61
-0.337013512849808 -0.459587097167969 2.30100011825562 239 63 55
-0.330923587083817 -0.459808170795441 2.30200004577637 248 72 64
-0.324263364076614 -0.459230035543442 2.29900002479553 240 64 56
-0.317895293235779 -0.459051072597504 2.29800009727478 241 65 57
-0.311531901359558 -0.458871841430664 2.29700016975403 246 68 63
-0.305306106805801 -0.458892107009888 2.29700016975403 242 62 58
-0.299209743738174 -0.459111779928207 2.29800009727478 244 66 61
-0.293489694595337 -0.459930628538132 2.30200004577637 248 68 63
-0.287372946739197 -0.460149854421616 2.3030002117157 248 69 61
-0.281127959489822 -0.460168987512589 2.3030002117157 250 71 63
-0.274643570184708 -0.459788113832474 2.30100011825562 250 71 63
-0.268402546644211 -0.459806501865387 2.30100011825562 249 67 62
-0.262046992778778 -0.459624797105789 2.30000019073486 249 66 63
-0.255807369947433 -0.459642589092255 2.30000019073486 254 69 68
-0.249892592430115 -0.460259556770325 2.3030002117157 249 66 65
-0.243855088949203 -0.460676372051239 2.3050000667572 249 66 65
-0.237393766641617 -0.460293382406235 2.3030002117157 251 68 67
-0.23114338517189 -0.46030980348587 2.3030002117157 249 69 65
-0.22479473054409 -0.460125893354416 2.30200004577637 250 70 66
-0.218640774488449 -0.460341423749924 2.3030002117157 255 76 71
-0.212480768561363 -0.460556596517563 2.30400013923645 254 74 69
-0.206493765115738 -0.46117115020752 2.30700016021729 252 73 65
-0.200576722621918 -0.461985349655151 2.31100010871887 251 75 67
-0.194553256034851 -0.462599188089371 2.31400012969971 254 78 70
-0.188919797539711 -0.46421229839325 2.32200002670288 241 79 88
-0.183714225888252 -0.467024683952332 2.3360002040863 170 49 72
-0.42722076177597 -0.462020993232727 2.28400015830994 222 70 66
-0.4208604991436 -0.461842715740204 2.28299999237061 229 65 62
-0.415231496095657 -0.462473601102829 2.28600001335144 237 69 64
-0.408690840005875 -0.462092846632004 2.28400015830994 237 67 62
-0.402512669563293 -0.462116539478302 2.28400015830994 233 65 60
-0.395813137292862 -0.461532980203629 2.2810001373291 236 66 60
-0.390154033899307 -0.462163358926773 2.28400015830994 235 65 59
-0.384309738874435 -0.462591260671616 2.28600001335144 240 71 62
-0.378453969955444 -0.463019043207169 2.28800010681152 240 68 60
-0.372423827648163 -0.463244259357452 2.28900003433228 242 70 64
-0.365907549858093 -0.462862223386765 2.28700017929077 245 71 65
-0.35987314581871 -0.463087052106857 2.28800010681152 244 70 64
-0.353678017854691 -0.463109284639359 2.28800010681152 244 68 62
-0.347634017467499 -0.463333755731583 2.28900003433228 245 69 61
-0.341583877801895 -0.46355801820755 2.29000020027161 245 69 60
-0.335381001234055 -0.463579565286636 2.29000020027161 249 73 64
-0.329464882612228 -0.464005798101425 2.29200005531311 244 68 59
-0.3233962059021 -0.464229345321655 2.29300022125244 248 72 63
-0.317044645547867 -0.464047700166702 2.29200005531311 247 70 62
-0.310562193393707 -0.463663309812546 2.29000020027161 246 66 61
-0.304355621337891 -0.463683575391769 2.29000020027161 251 71 67
-0.298278510570526 -0.463906019926071 2.29100012779236 255 74 71
-0.292322784662247 -0.464330732822418 2.29300022125244 250 67 64
-0.286230713129044 -0.464552640914917 2.29400014877319 249 67 62
-0.279888361692429 -0.464369207620621 2.29300022125244 254 72 67
-0.273550748825073 -0.464185446500778 2.29200005531311 253 68 65
-0.267217874526978 -0.464001417160034 2.29100012779236 254 71 70
-0.26100367307663 -0.464019447565079 2.29100012779236 251 66 65
-0.254788815975189 -0.464037239551544 2.29100012779236 250 65 64
-0.249007254838943 -0.464864879846573 2.29500007629395 249 66 65
-0.242886036634445 -0.465084582567215 2.2960000038147 254 71 68
-0.236655622720718 -0.465101331472397 2.2960000038147 255 72 69
-0.230524986982346 -0.465320348739624 2.29700016975403 252 72 68
-0.224290654063225 -0.465336412191391 2.29700016975403 252 69 68
-0.218150600790977 -0.465554624795914 2.29800009727478 245 64 64
-0.212096780538559 -0.465975165367126 2.30000019073486 249 70 70
-0.206568524241447 -0.467610895633698 2.30800008773804 248 71 69
-0.201430201530457 -0.470259457826614 2.32100009918213 238 84 88
-0.19622066617012 -0.472907721996307 2.33400011062622 162 53 79
-0.426074355840683 -0.466962426900864 2.27800011634827 189 85 77
-0.420099139213562 -0.467191487550735 2.27900004386902 225 77 70
-0.414117783308029 -0.46742045879364 2.28000020980835 234 73 56
-0.407772421836853 -0.467239230871201 2.27900004386902 236 69 60
-0.401255518198013 -0.466852933168411 2.27700018882751 241 68 64
-0.395095676183701 -0.466876447200775 2.27700018882751 239 69 64
-0.389618277549744 -0.467719942331314 2.2810001373291 240 68 62
-0.383614212274551 -0.467948228120804 2.28200006484985 241 72 63
-0.377273201942444 -0.467766284942627 2.2810001373291 237 65 57
-0.371262192726135 -0.467994213104248 2.28200006484985 240 68 60
-0.364925026893616 -0.467811822891235 2.2810001373291 245 71 65
-0.358907073736191 -0.468039333820343 2.28200006484985 242 68 62
-0.352573871612549 -0.467856556177139 2.2810001373291 246 70 62
-0.34670090675354 -0.46828880906105 2.28299999237061 247 71 63
-0.340517997741699 -0.468310594558716 2.28299999237061 246 71 59
-0.334334403276443 -0.468332201242447 2.28299999237061 243 68 56
-0.328293740749359 -0.468558698892593 2.28400015830994 248 72 63
-0.322387933731079 -0.468990057706833 2.28600001335144 247 70 61
-0.316332340240479 -0.469216138124466 2.28700017929077 245 68 60
-0.309999287128448 -0.469031542539597 2.28600001335144 246 66 61
-0.303538084030151 -0.468641430139542 2.28400015830994 243 63 58
-0.297347366809845 -0.468661487102509 2.28400015830994 247 65 60
-0.291283369064331 -0.468886345624924 2.28500008583069 245 63 58
-0.285213261842728 -0.469110995531082 2.28600001335144 243 61 56
-0.27864882349968 -0.468514412641525 2.28299999237061 245 63 58
-0.272338718175888 -0.46832799911499 2.28200006484985 252 67 66
-0.266033262014389 -0.468141168355942 2.2810001373291 243 60 59
-0.260188281536102 -0.468775033950806 2.28400015830994 244 61 60
-0.253881514072418 -0.468587547540665 2.28299999237061 254 69 68
-0.248121991753578 -0.469426035881042 2.28700017929077 255 73 72
-0.241811260581017 -0.469237893819809 2.28600001335144 249 69 65
-0.235711440443993 -0.469459980726242 2.28700017929077 253 73 68
-0.229505211114883 -0.469476372003555 2.28700017929077 253 73 68
-0.223688915371895 -0.470313549041748 2.29100012779236 253 73 68
-0.217755407094955 -0.47094514966011 2.29400014877319 250 71 70
-0.212081611156464 -0.472192287445068 2.30000019073486 251 72 77
-0.207359164953232 -0.47569751739502 2.31700015068054 233 68 73
-0.413185805082321 -0.472541838884354 2.27500009536743 202 76 70
-0.406854033470154 -0.472357928752899 2.27400016784668 224 72 68
-0.399998396635056 -0.471550673246384 2.27000021934509 230 66 61
-0.394031137228012 -0.471781969070435 2.27100014686584 240 66 60
-0.388228505849838 -0.472220778465271 2.27300000190735 245 73 67
-0.382582485675812 -0.47286731004715 2.27600002288818 239 70 60
-0.376092493534088 -0.472474813461304 2.27400016784668 245 73 65
-0.369937926530838 -0.472497701644897 2.27400016784668 245 71 63
-0.363782584667206 -0.47252032160759 2.27400016784668 244 70 62
-0.357783794403076 -0.472750604152679 2.27500009536743 242 66 58
-0.351624310016632 -0.472772866487503 2.27500009536743 241 65 57
-0.345312237739563 -0.472587108612061 2.27400016784668 237 61 52
-0.338855683803558 -0.472193211317062 2.2720000743866 249 74 62
-0.332848519086838 -0.47242259979248 2.27300000190735 246 71 59
-0.327122628688812 -0.473067462444305 2.27600002288818 241 66 54
-0.321520864963531 -0.473920047283173 2.28000020980835 252 76 64
-0.315481722354889 -0.474148750305176 2.2810001373291 244 65 56
-0.30902960896492 -0.473753571510315 2.27900004386902 248 69 60
-0.302587687969208 -0.473358154296875 2.27700018882751 245 66 58
-0.296416223049164 -0.473378121852875 2.27700018882751 251 69 62
-0.29024401307106 -0.473397850990295 2.27700018882751 250 68 61
-0.284071177244186 -0.473417282104492 2.27700018882751 251 69 64
-0.277653515338898 -0.473020523786545 2.27500009536743 255 76 71
-0.271484732627869 -0.473039299249649 2.27500009536743 255 70 67
-0.265315234661102 -0.473057746887207 2.27500009536743 251 68 65
-0.259372919797897 -0.473491758108139 2.27700018882751 247 64 61
-0.2533078789711 -0.473717510700226 2.27800011634827 255 74 73
-0.247453764081001 -0.474358886480331 2.2810001373291 247 66 65
-0.241053864359856 -0.473960071802139 2.27900004386902 252 72 68
-0.235179498791695 -0.474600732326508 2.28200006484985 250 70 66
-0.22928823530674 -0.475241154432297 2.28500008583069 244 68 62
-0.223672986030579 -0.476505190134048 2.29100012779236 245 74 72
-0.21821440756321 -0.478184938430786 2.29900002479553 236 82 86
-0.405399024486542 -0.476817458868027 2.26600003242493 192 80 74
-0.398917615413666 -0.476420342922211 2.26400017738342 233 69 64
-0.39279317855835 -0.476443737745285 2.26400017738342 241 69 63
-0.387009650468826 -0.476887971162796 2.26600003242493 239 67 61
-0.381046563386917 -0.47712168097496 2.26700019836426 242 73 63
-0.374581098556519 -0.47672376036644 2.26500010490417 245 73 65
-0.368613749742508 -0.476957023143768 2.26600003242493 244 70 64
-0.362640261650085 -0.477190226316452 2.26700019836426 243 67 61
-0.356817841529846 -0.477633655071259 2.26900005340576 243 65 60
