0.383570939302444 0.256467878818512 3.69800019264221 242 100 105
0.392882853746414 0.255970269441605 3.69100022315979 240 94 96
0.402919411659241 0.255957901477814 3.69100022315979 247 105 100
0.413513988256454 0.256291955709457 3.69600009918213 255 138 126
0.361891627311707 0.245356246829033 3.68200016021729 198 92 95
0.371605008840561 0.245145231485367 3.67900013923645 252 100 106
0.381093293428421 0.244800716638565 3.67400026321411 255 101 109
0.390340119600296 0.244322672486305 3.66700005531311 253 96 104
0.400093406438828 0.244177609682083 3.66500020027161 252 96 100
0.410729438066483 0.244565233588219 3.67100024223328 254 100 103
0.42047992348671 0.244419664144516 3.66900014877319 243 96 93
0.430921971797943 0.244673505425453 3.67300009727478 228 97 87
0.340379685163498 0.234327882528305 3.66600012779236 236 95 102
0.350355327129364 0.234317749738693 3.66600012779236 255 104 111
0.360133171081543 0.234179526567459 3.66400027275085 255 104 111
0.369393795728683 0.233721524477005 3.65700006484985 255 100 105
0.378822475671768 0.233391121029854 3.65200018882751 254 95 102
0.388435542583466 0.233188301324844 3.64900016784668 255 98 105
0.398358404636383 0.233176961541176 3.64900016784668 255 98 105
0.409175008535385 0.233676582574844 3.65700006484985 255 99 106
0.418658435344696 0.233409151434898 3.65300011634827 255 103 110
0.428705275058746 0.233461007475853 3.6540002822876 255 103 110
0.439116209745407 0.233704268932343 3.65800023078918 255 109 106
0.449670225381851 0.234011188149452 3.66300010681152 244 99 96
0.459371536970139 0.233870655298233 3.66100025177002 255 148 134
0.318073958158493 0.222709804773331 3.63900017738342 185 96 102
0.328339368104935 0.22294545173645 3.64300012588501 250 103 110
0.338439613580704 0.223058432340622 3.64500021934509 255 103 109
0.347880512475967 0.222742781043053 3.64000010490417 255 99 103
0.357391327619553 0.222488135099411 3.63600015640259 255 102 106
0.366676986217499 0.222110852599144 3.63000011444092 255 100 104
0.376758575439453 0.222222879528999 3.632000207901 255 97 101
0.3871690928936 0.222518175840378 3.63700008392334 255 96 103
0.397059559822083 0.222507357597351 3.63700008392334 255 101 108
0.407508105039597 0.222802177071571 3.64200019836426 255 103 110
0.417524039745331 0.222852036356926 3.64300012588501 253 99 103
0.42742657661438 0.222840502858162 3.64300012588501 254 100 104
0.437567800283432 0.222951084375381 3.64500021934509 255 107 110
0.446490734815598 0.222449764609337 3.63700008392334 255 102 105
0.456874549388886 0.222682282328606 3.64100027084351 255 102 109
0.466252863407135 0.222425267100334 3.63700008392334 240 88 92
0.47822630405426 0.223391130566597 3.65300011634827 233 96 91
0.297285526990891 0.212112367153168 3.62700009346008 255 112 119
0.307499051094055 0.21233806014061 3.63100028038025 243 91 99
0.3174709379673 0.212388008832932 3.632000207901 255 102 110
0.326545804738998 0.211852982640266 3.6230001449585 255 105 112
0.335663378238678 0.211376264691353 3.61500024795532 255 102 106
0.345022886991501 0.211074709892273 3.6100001335144 255 100 103
0.355140328407288 0.211240723729134 3.61300015449524 255 102 105
0.36496976017952 0.211231097579002 3.61300015449524 255 102 106
0.37531653046608 0.211513519287109 3.61800026893616 255 102 106
0.386434376239777 0.212204918265343 3.63000011444092 255 102 109
0.396306067705154 0.212194561958313 3.63000011444092 255 104 111
0.405952543020248 0.2120670825243 3.62800025939941 255 99 106
0.415586799383163 0.21193939447403 3.62600016593933 255 99 106
0.425091356039047 0.2117530554533 3.6230001449585 255 103 110
0.435298472642899 0.211917206645012 3.62600016593933 255 105 112
0.445152133703232 0.211905792355537 3.62600016593933 255 104 108
0.45600813627243 0.212361663579941 3.6340000629425 255 102 105
0.464598506689072 0.211765483021736 3.62400007247925 255 99 106
0.475096791982651 0.212045654654503 3.62900018692017 255 103 107
0.484150618314743 0.211682870984077 3.6230001449585 253 115 110
0.494806528091431 0.212021052837372 3.62900018692017 239 114 94
0.285436302423477 0.200844764709473 3.60200023651123 238 99 105
0.296309888362885 0.201562002301216 3.61500024795532 255 104 112
0.306575655937195 0.201832920312881 3.62000012397766 255 101 108
0.315905928611755 0.20149028301239 3.61400008201599 255 98 105
0.324571549892426 0.200757220387459 3.6010000705719 255 103 107
0.333443731069565 0.200191229581833 3.59100008010864 255 103 106
0.343216001987457 0.200182497501373 3.59100008010864 255 103 106
0.352987080812454 0.200173556804657 3.59100008010864 255 104 107
0.363261967897415 0.200443118810654 3.59600019454956 251 95 99
0.374081432819366 0.200991123914719 3.60600018501282 255 102 106
0.384954005479813 0.201538860797882 3.61600017547607 255 103 110
0.395224541425705 0.201751917600632 3.62000012397766 255 102 109
0.404620200395584 0.201518908143044 3.61600017547607 255 100 107
0.413992822170258 0.201285734772682 3.61200022697449 255 100 107
0.423342168331146 0.201052382588387 3.6080002784729 255 102 109
0.432908445596695 0.200930282473564 3.60600018501282 255 104 108
0.442953526973724 0.201030880212784 3.6080002784729 255 105 109
0.454011887311935 0.201577007770538 3.61800026893616 255 105 109
0.462943464517593 0.201175734400749 3.61100006103516 255 103 106
0.47301384806633 0.201275736093521 3.61300015449524 255 104 108
0.481222599744797 0.200595647096634 3.6010000705719 255 109 112
0.491546273231506 0.200806736946106 3.60500025749207 255 107 109
0.501055657863617 0.200683385133743 3.60300016403198 255 111 111
0.511970460414886 0.201116859912872 3.61100006103516 242 95 92
0.520759582519531 0.200714722275734 3.60400009155273 240 110 104
0.264347940683365 0.189983487129211 3.58200025558472 197 96 103
0.274027287960052 0.189923703670502 3.58100008964539 252 105 112
0.284175664186478 0.190181910991669 3.5860002040863 255 106 114
0.294678062200546 0.19065198302269 3.59500026702881 255 103 110
0.304889619350433 0.190909683704376 3.60000014305115 255 100 104
0.313816010951996 0.190371707081795 3.59000015258789 255 106 110
0.32322770357132 0.190151751041412 3.5860002040863 255 104 108
0.33261638879776 0.189931571483612 3.58200025558472 255 106 109
0.342651158571243 0.190082356333733 3.58500027656555 255 101 104
0.352504402399063 0.190126866102219 3.5860002040863 255 105 108
0.362967938184738 0.190489262342453 3.59300017356873 255 103 106
0.373260825872421 0.190745428204536 3.59800028800964 255 101 105
0.383260160684586 0.190842285752296 3.60000014305115 255 101 108
0.393159836530685 0.190885931253433 3.6010000705719 255 100 107
0.402839750051498 0.19082336127758 3.60000014305115 255 100 107
0.412283629179001 0.19065460562706 3.59700012207031 254 97 104
0.421709805727005 0.190485686063766 3.59400010108948 255 102 109
0.43207859992981 0.190740570425987 3.5990002155304 255 104 108
0.441490948200226 0.190571278333664 3.59600019454956 255 102 106
0.451638400554657 0.190719753503799 3.5990002155304 255 107 111
0.460775047540665 0.190444126725197 3.59400010108948 255 104 107
0.471061259508133 0.19064524769783 3.59800028800964 255 103 106
0.479496657848358 0.190104380249977 3.58800005912781 255 103 106
0.489239811897278 0.190093219280243 3.58800005912781 255 104 108
0.499398529529572 0.190240830183029 3.59100008010864 255 107 110
0.509146690368652 0.190229326486588 3.59100008010864 255 105 107
0.518315196037292 0.190005794167519 3.58700013160706 251 111 116
0.527754724025726 0.189888074994087 3.58500027656555 224 98 102
0.233964532613754 0.179384812712669 3.56500005722046 254 170 171
0.243608847260475 0.179328754544258 3.56400012969971 238 109 115
0.25374436378479 0.179624706506729 3.57000017166138 252 103 110
0.263542592525482 0.179668828845024 3.57100009918213 255 103 110
0.273192226886749 0.179612129926682 3.57000017166138 255 100 104
0.282676845788956 0.179454579949379 3.56700015068054 255 104 108
0.29255399107933 0.179548382759094 3.56900024414063 255 107 110
0.302440881729126 0.179641976952553 3.57100009918213 255 101 104
0.312424957752228 0.179785639047623 3.57400012016296 255 100 104
0.322334110736847 0.179878786206245 3.57600021362305 255 101 105
0.331602931022644 0.179619640111923 3.57100009918213 255 106 109
0.34141680598259 0.179662093520164 3.57200026512146 255 99 103
0.351038247346878 0.179603725671768 3.57100009918213 255 104 107
0.361360192298889 0.179897248744965 3.5770001411438 255 101 104
0.370987266302109 0.179838508367538 3.57600021362305 255 104 107
0.380714029073715 0.179829850792885 3.57600021362305 255 104 108
0.390439480543137 0.179821029305458 3.57600021362305 252 96 99
0.400387316942215 0.179912582039833 3.57800006866455 255 101 105
0.409198462963104 0.179501131176949 3.57000017166138 255 103 110
0.419255375862122 0.179642587900162 3.57300019264221 255 99 106
0.429927527904511 0.18003523349762 3.58100008964539 255 102 106
0.440027803182602 0.180176302790642 3.58400011062622 255 102 106
0.449013382196426 0.17986473441124 3.57800006866455 255 111 115
0.458221316337585 0.179653584957123 3.57400012016296 255 104 107
0.468191564083099 0.179743871092796 3.57600021362305 255 104 108
0.478438377380371 0.179934531450272 3.58000016212463 255 101 108
0.488432645797729 0.180024445056915 3.58200025558472 255 107 115
0.498714357614517 0.180214732885361 3.5860002040863 254 109 116
0.507456600666046 0.179852053523064 3.57900023460388 235 99 108
0.223501339554787 0.169102385640144 3.5530002117157 213 100 103
0.233248069882393 0.16914476454258 3.55400013923645 249 112 117
0.242384180426598 0.168758615851402 3.54600024223328 254 103 109
0.25218653678894 0.168848186731339 3.54800009727478 255 107 114
0.261777460575104 0.16879478096962 3.54700016975403 255 104 108
0.271668016910553 0.168931514024734 3.55000019073486 255 103 107
0.2813361287117 0.168925285339355 3.55000019073486 255 101 104
0.291085213422775 0.168966457247734 3.55100011825562 255 103 106
0.301262080669403 0.169245302677155 3.55700016021729 255 102 106
0.311470508575439 0.169523939490318 3.56300020217896 255 106 110
0.321169674396515 0.169516921043396 3.56300020217896 255 103 107
0.33021754026413 0.169176653027534 3.55600023269653 255 99 103
0.339990794658661 0.169216826558113 3.55700016021729 255 102 106
0.349866569042206 0.169304370880127 3.55900025367737 255 101 105
0.359852969646454 0.169439285993576 3.5620002746582 255 100 104
0.369335621595383 0.169336169958115 3.56000018119812 255 101 105
0.379551410675049 0.169565841555595 3.56500005722046 255 103 107
0.389465510845184 0.169652625918388 3.56700015068054 255 104 107
0.398270010948181 0.169263631105423 3.55900025367737 255 102 106
0.407144278287888 0.168922051787376 3.55200028419495 255 100 104
0.417035102844238 0.169008329510689 3.55400013923645 255 100 104
0.428015917539597 0.169522374868393 3.56500005722046 255 103 107
0.438686817884445 0.169893607497215 3.57300019264221 255 104 108
0.447517216205597 0.169551402330399 3.56600022315979 255 105 109
0.455795228481293 0.169018879532814 3.5550000667572 255 106 110
0.465190261602402 0.168914154171944 3.5530002117157 255 110 116
0.475642055273056 0.16918957233429 3.55900025367737 255 105 113
0.485852211713791 0.169369742274284 3.56300020217896 241 102 108
0.212981566786766 0.158794179558754 3.53900027275085 196 101 106
0.222499787807465 0.158699750900269 3.53700017929077 248 111 117
0.232268795371056 0.158784583210945 3.53900027275085 255 113 120
0.241295859217644 0.158375695347786 3.53000020980835 255 107 113
0.250841587781906 0.15832556784153 3.5290002822876 254 99 106
0.260528564453125 0.158364936709404 3.53000020980835 255 108 112
0.270143419504166 0.158359318971634 3.53000020980835 255 102 105
0.279678046703339 0.158308610320091 3.5290002822876 255 103 106
0.289370089769363 0.158347427845001 3.53000020980835 255 107 110
0.299490004777908 0.158610343933105 3.53600025177002 255 103 107
0.309291750192642 0.158693611621857 3.53800010681152 255 101 105
0.319103330373764 0.158776715397835 3.54000020027161 255 102 106
0.328738808631897 0.158769935369492 3.54000020027161 255 106 110
0.338659882545471 0.158897519111633 3.54300022125244 255 100 107
0.348006218671799 0.158755853772163 3.54000020027161 252 95 102
0.357334941625595 0.158614009618759 3.53700017929077 255 99 106
0.36674976348877 0.158516839146614 3.53500008583069 255 100 107
0.376791298389435 0.158688560128212 3.53900027275085 255 102 106
0.387180775403976 0.158994600176811 3.54600024223328 255 108 112
0.39693546295166 0.159031420946121 3.54700016975403 255 101 104
0.406235754489899 0.158888772130013 3.54400014877319 255 104 107
0.41587033867836 0.158880442380905 3.54400014877319 255 107 110
0.42610377073288 0.159096091985703 3.54900026321411 255 110 112
0.437099695205688 0.159580543637276 3.56000018119812 255 104 107
0.445894926786423 0.15925794839859 3.5530002117157 255 106 112
0.454265922307968 0.158800780773163 3.54300022125244 255 106 112
0.462712049484253 0.158388331532478 3.53400015830994 231 94 100
0.473379671573639 0.158737629652023 3.54200005531311 241 156 160
0.231879815459251 0.148884803056717 3.53300023078918 233 102 108
0.240959078073502 0.148542910814285 3.52500009536743 255 114 121
0.250349223613739 0.1484115421772 3.5220000743866 255 108 114
0.259353041648865 0.1480692923069 3.51400017738342 255 101 108
0.269001066684723 0.148106142878532 3.51500010490417 255 102 105
0.278891265392303 0.148269206285477 3.51900005340576 255 101 104
0.288392335176468 0.148221403360367 3.51800012588501 255 104 108
0.298140972852707 0.148299843072891 3.52000021934509 255 102 106
0.307462245225906 0.148167446255684 3.51700019836426 255 101 105
0.31766751408577 0.148456171154976 3.52400016784668 255 105 109
0.327816814184189 0.148702561855316 3.53000020980835 255 101 105
0.337710827589035 0.148822411894798 3.53300023078918 255 103 107
0.346636921167374 0.14852087199688 3.52600026130676 255 107 111
0.356129705905914 0.148471862077713 3.52500009536743 255 101 108
0.365719616413116 0.148464873433113 3.52500009536743 255 98 105
0.375095278024673 0.148373454809189 3.52300024032593 255 101 105
0.385659724473953 0.148745149374008 3.53200006484985 255 106 110
0.39582422375679 0.148948222398758 3.53700017929077 255 108 108
0.405441373586655 0.148940563201904 3.53700017929077 255 109 109
0.414587676525116 0.148764327168465 3.53300023078918 255 106 108
0.424551248550415 0.148882672190666 3.53600025177002 255 107 109
0.434775292873383 0.149085089564323 3.54100012779236 255 109 113
0.44301700592041 0.148613721132278 3.53000020980835 253 108 115
0.451838552951813 0.148352771997452 3.52400016784668 255 122 128
0.249643251299858 0.138416856527328 3.51200008392334 197 112 117
0.258472412824631 0.138017952442169 3.50200009346008 238 101 107
0.268164455890656 0.138091832399368 3.50400018692017 255 110 117
0.27794560790062 0.138204947113991 3.507000207901 255 110 117
0.287168234586716 0.138042032718658 3.50300025939941 255 109 115
0.296622067689896 0.137997180223465 3.50200009346008 255 100 107
0.305894494056702 0.137873381376266 3.49900007247925 255 103 107
0.316231250762939 0.138222247362137 3.50800013542175 255 107 111
0.326058596372604 0.138334527611732 3.51100015640259 255 107 111
0.335901021957397 0.138446629047394 3.51400017738342 255 105 109
0.345070511102676 0.138282805681229 3.51000022888184 255 104 108
0.354115813970566 0.138079449534416 3.50500011444092 255 101 105
0.363547652959824 0.138033509254456 3.50400018692017 255 102 106
0.372653394937515 0.137869268655777 3.50000023841858 255 105 108
0.382937133312225 0.138138189911842 3.507000207901 255 102 102
0.393369495868683 0.138446301221848 3.51500010490417 255 108 108
0.402926951646805 0.138439163565636 3.51500010490417 255 108 110
0.412600368261337 0.13847129046917 3.51600027084351 255 108 111
0.42179748415947 0.13834573328495 3.51300024986267 255 113 119
0.431099653244019 0.138259410858154 3.51100015640259 231 98 104
0.276444762945175 0.127948805689812 3.48800015449524 235 100 106
0.285369843244553 0.127687126398087 3.48100018501282 255 111 118
0.295018047094345 0.127755463123322 3.4830002784729 255 105 111
0.304326325654984 0.127676904201508 3.48100018501282 255 103 110
0.31434378027916 0.127891629934311 3.48700022697449 255 107 111
0.323835521936417 0.127886146306992 3.48700022697449 255 104 108
0.333230435848236 0.127843827009201 3.48600006103516 255 104 107
0.343012005090714 0.127948075532913 3.48900008201599 255 104 107
0.352606564760208 0.127978831529617 3.49000024795532 255 107 110
0.361997753381729 0.127936094999313 3.48900008201599 255 109 112
0.37116926908493 0.127819895744324 3.48600006103516 255 108 108
0.380978316068649 0.127923563122749 3.48900008201599 255 110 110
0.390578508377075 0.127953767776489 3.49000024795532 255 113 115
0.399838835000992 0.127873823046684 3.48800015449524 255 110 113
0.410143047571182 0.128123730421066 3.49500012397766 242 99 106
0.302670300006866 0.117544092237949 3.46200013160706 238 97 106
0.312996804714203 0.117878690361977 3.47200012207031 254 105 112
0.322726398706436 0.117975480854511 3.47500014305115 254 100 104
0.33228000998497 0.118004225194454 3.4760000705719 255 111 115
0.341837882995605 0.118032842874527 3.47700023651123 255 104 106
0.351096779108047 0.117959469556808 3.47500014305115 255 107 107
0.360239833593369 0.117852054536343 3.47200012207031 255 109 109
0.369471698999405 0.117778450250626 3.47000026702881 255 107 109
0.378582179546356 0.117670796811581 3.46700024604797 255 108 110
0.388234555721283 0.11773270368576 3.46900010108948 255 110 116
0.397667199373245 0.117726631462574 3.46900010108948 244 101 108
0.31210008263588 0.108103200793266 3.46200013160706 206 97 103
0.321524024009705 0.108098544180393 3.46200013160706 252 107 114
0.33142477273941 0.108249895274639 3.46700024604797 253 106 113
0.340761572122574 0.108213752508163 3.46600008010864 255 113 116
0.350091755390167 0.108177527785301 3.46500015258789 255 113 116
0.358896374702454 0.107985071837902 3.45900011062622 255 112 118
0.367773652076721 0.107823751866817 3.45400023460388 254 112 117
0.376622289419174 0.107662320137024 3.44900012016296 237 100 106
0.330282241106033 0.0984587147831917 3.45500016212463 237 106 112
0.339488208293915 0.0983972474932671 3.45300006866455 254 113 120
0.348378986120224 0.098250225186348 3.44800019264221 255 114 121
0.357137441635132 0.0980745777487755 3.44200015068054 241 102 108
0.36607500910759 0.0979558452963829 3.43800020217896 255 168 173
-1.42307543754578 -0.361828476190567 2.74900007247925 233 152 139
-1.3654807806015 -0.374656200408936 2.85000014305115 239 154 136
-1.36482286453247 -0.376604288816452 2.86500024795532 245 156 136
-1.35698354244232 -0.37658154964447 2.86500024795532 245 161 138
-1.34632360935211 -0.375771433115005 2.85900020599365 243 161 138
-1.33195614814758 -0.373911142349243 2.84500002861023 245 165 148
-1.42052888870239 -0.368621021509171 2.74400019645691 244 163 149
-1.41498863697052 -0.369116604328156 2.7480001449585 238 157 143
-1.35741412639618 -0.377978593111038 2.81700015068054 250 169 156
-1.35879778862 -0.380502372980118 2.8360002040863 253 166 146
-1.35579514503479 -0.381819576025009 2.84600019454956 234 147 125
-1.34611201286316 -0.381259709596634 2.84200024604797 240 153 131
-1.33504295349121 -0.380298614501953 2.83500003814697 243 156 134
-1.32261252403259 -0.378936380147934 2.82500004768372 255 174 157
-1.37753760814667 -0.382720291614532 2.79500007629395 176 94 84
-1.36103248596191 -0.380224615335464 2.77700018882751 251 168 158
-1.35291695594788 -0.380057990550995 2.77600002288818 251 168 158
-1.35353624820709 -0.382356971502304 2.79300022125244 251 166 154
-1.35503113269806 -0.384930551052094 2.81200003623962 253 165 151
-1.35115694999695 -0.385999381542206 2.82000017166138 250 159 139
-1.34295678138733 -0.385837435722351 2.81900024414063 235 144 122
-1.3319251537323 -0.384855568408966 2.81200003623962 236 147 125
-1.3242335319519 -0.384833008050919 2.81200003623962 254 167 145
-1.36008286476135 -0.38747650384903 2.77500009536743 249 166 156
-1.35259532928467 -0.389650523662567 2.79100012779236 248 161 149
-1.35120344161987 -0.391437143087387 2.80400013923645 249 161 145
-1.34591233730316 -0.392108082771301 2.80900001525879 232 138 121
-1.3353590965271 -0.391244888305664 2.8030002117157 233 142 122
-1.32579112052917 -0.390662103891373 2.79900002479553 254 166 149
-1.31954646110535 -0.391057521104813 2.80200004577637 255 170 154
-1.31235420703888 -0.391175091266632 2.8030002117157 254 171 161
-1.3070228099823 -0.391851902008057 2.80800008773804 251 169 159
-1.35913443565369 -0.394718170166016 2.77300024032593 247 165 155
-1.35102736949921 -0.394544363021851 2.7720000743866 241 154 142
-1.34971654415131 -0.39636442065239 2.78500008583069 211 123 109
-1.34496676921844 -0.397189378738403 2.79100012779236 225 127 112
-1.33827292919159 -0.397446274757385 2.79300022125244 239 144 129
-1.33014404773712 -0.397277504205704 2.79200005531311 255 166 150
-1.32344686985016 -0.397536873817444 2.79400014877319 255 169 157
-1.31909871101379 -0.398508846759796 2.80100011825562 255 166 156
-1.31237602233887 -0.398770600557327 2.8030002117157 252 167 157
-1.30797445774078 -0.399744749069214 2.81000018119812 249 166 157
-1.34959638118744 -0.401627123355865 2.76900005340576 247 154 141
-1.34586942195892 -0.402756422758102 2.77700018882751 235 142 129
-1.34065842628479 -0.403451770544052 2.78200006484985 245 152 140
-1.3344669342041 -0.403858333826065 2.78500008583069 255 164 152
-1.32921755313873 -0.404556185007095 2.79000020027161 248 159 149
-1.32347190380096 -0.405110150575638 2.79400014877319 244 156 148
-1.31959331035614 -0.406245201826096 2.80200004577637 244 159 150
-1.31380331516266 -0.406801581382751 2.80600023269653 246 161 152
-1.3084614276886 -0.407504022121429 2.81100010871887 249 165 159
-1.39735269546509 -0.403425991535187 2.72800016403198 183 101 92
-1.38980376720428 -0.403381586074829 2.72800016403198 230 150 141
-1.34621667861938 -0.408103227615356 2.76200008392334 240 145 132
-1.34202301502228 -0.409105628728867 2.76900005340576 244 153 140
-1.3373144865036 -0.409961402416229 2.77500009536743 252 161 149
-1.33066201210022 -0.410227626562119 2.77700018882751 245 156 146
-1.32733869552612 -0.411529004573822 2.78600001335144 244 155 145
-1.3234977722168 -0.412683874368668 2.79400014877319 240 155 146
-1.32008898258209 -0.413987547159195 2.8030002117157 238 153 144
-1.31335842609406 -0.414258509874344 2.8050000667572 242 154 146
-1.30801808834076 -0.414973795413971 2.81000018119812 247 161 155
-1.40238106250763 -0.410129576921463 2.72300004959106 225 144 141
-1.39534950256348 -0.41023313999176 2.7240002155304 187 104 98
-1.38882899284363 -0.410488784313202 2.7260000705719 226 146 139
-1.38179767131805 -0.410595387220383 2.72700023651123 233 153 146
-1.34576225280762 -0.415444791316986 2.76100015640259 243 152 140
-1.34011614322662 -0.416013866662979 2.76500010490417 251 162 150
-1.33493542671204 -0.416734665632248 2.77000021934509 253 164 154
-1.32925343513489 -0.417306214570999 2.77400016784668 253 164 154
-1.32546079158783 -0.418480753898621 2.78200006484985 255 168 158
-1.32162964344025 -0.41965651512146 2.79000020027161 255 171 161
-1.31775963306427 -0.420833379030228 2.79800009727478 251 166 156
-1.31104147434235 -0.421109050512314 2.80000019073486 242 154 148
-1.30571353435516 -0.421837031841278 2.8050000667572 243 157 153
-1.39795768260956 -0.41839924454689 2.72900009155273 168 87 83
-1.34335911273956 -0.422168910503387 2.75600004196167 244 155 143
-1.33724057674408 -0.42259469628334 2.7590000629425 252 163 151
-1.33255696296692 -0.423481345176697 2.76500010490417 249 160 148
-1.32688748836517 -0.424062877893448 2.76900005340576 250 161 149
-1.32215428352356 -0.424952000379562 2.77500009536743 255 170 160
-1.31976199150085 -0.426607966423035 2.78600001335144 255 170 160
-1.31731486320496 -0.428265124559402 2.79700016975403 250 165 155
-1.31012976169586 -0.428392201662064 2.79800009727478 248 162 156
-1.30434083938599 -0.428979992866516 2.80200004577637 239 155 151
-1.41158676147461 -0.425446033477783 2.7260000705719 168 88 88
-1.40402436256409 -0.425394773483276 2.7260000705719 151 69 69
-1.35708057880402 -0.429251998662949 2.75300002098084 227 144 134
-1.3495032787323 -0.42921444773674 2.75300002098084 254 169 157
-1.34193170070648 -0.429178297519684 2.75300002098084 252 163 151
-1.33485066890717 -0.429299592971802 2.75400018692017 255 166 154
-1.33066141605377 -0.430357426404953 2.76100015640259 253 165 151
-1.32548069953918 -0.431104779243469 2.76600003242493 251 162 150
-1.32075452804565 -0.432009339332581 2.7720000743866 255 169 157
-1.3169481754303 -0.433226764202118 2.78000020980835 252 167 157
-1.31498682498932 -0.435068666934967 2.79200005531311 250 167 158
-1.3101555109024 -0.435976833105087 2.79800009727478 248 164 160
-1.41921091079712 -0.432909697294235 2.7260000705719 151 71 71
-1.40510559082031 -0.433120340108871 2.72800016403198 194 113 110
-1.39856767654419 -0.433386832475662 2.73000001907349 193 112 109
-1.35416185855865 -0.435772031545639 2.74700021743774 226 139 127
-1.34659945964813 -0.435733526945114 2.74700021743774 251 162 150
-1.34050524234772 -0.436172246932983 2.75000023841858 248 159 147
-1.33440029621124 -0.436612397432327 2.75300002098084 244 155 143
-1.32924854755402 -0.437371104955673 2.75800013542175 253 164 152
-1.32263731956482 -0.437655419111252 2.76000022888184 255 167 155
-1.31792604923248 -0.43857529759407 2.76600003242493 255 168 158
-1.31508219242096 -0.440130650997162 2.77600002288818 250 167 157
-1.31313073635101 -0.442004293203354 2.78800010681152 249 166 157
-1.31252348423004 -0.444354683160782 2.8030002117157 245 164 160
-1.41926681995392 -0.440321445465088 2.7260000705719 175 95 88
-1.41221165657043 -0.440427303314209 2.72700023651123 194 112 103
-1.40258264541626 -0.439727365970612 2.72300004959106 215 133 124
-1.35929310321808 -0.442462772130966 2.74200010299683 218 131 121
-1.35025787353516 -0.441937625408173 2.73900008201599 222 135 123
-1.3436963558197 -0.442220747470856 2.74100017547607 248 159 147
-1.33810484409332 -0.442827999591827 2.74500012397766 252 163 151
-1.33249688148499 -0.443436622619629 2.74900007247925 245 156 144
-1.32687258720398 -0.44404661655426 2.75300002098084 246 157 145
-1.3207528591156 -0.444496750831604 2.75600004196167 252 163 151
-1.31652796268463 -0.445593297481537 2.76300024986267 254 167 157
-1.31369113922119 -0.447174906730652 2.77300024032593 249 166 157
-1.31457245349884 -0.450047641992569 2.79100012779236 247 164 158
-1.41329717636108 -0.443522125482559 2.70000004768372 182 101 97
-1.41151416301727 -0.445270478725433 2.7110002040863 202 119 113
-1.40915989875793 -0.446855992078781 2.72100019454956 217 135 125
-1.40263617038727 -0.447129160165787 2.72300004959106 218 136 126
-1.39713358879089 -0.447732418775558 2.72700023651123 215 133 123
-1.35735249519348 -0.449251145124435 2.73800015449524 217 130 120
-1.34832668304443 -0.448716759681702 2.7350001335144 223 134 124
-1.34324550628662 -0.449496418237686 2.74000024795532 244 155 145
-1.33814263343811 -0.450277507305145 2.74500012397766 252 163 153
-1.33204853534698 -0.45073190331459 2.7480001449585 246 157 147
-1.32497978210449 -0.450859755277634 2.74900007247925 248 159 149
-1.31839025020599 -0.451153039932251 2.75100016593933 250 163 153
-1.31560719013214 -0.452759653329849 2.76100015640259 252 167 158
-1.39857017993927 -0.453196614980698 2.71500015258789 199 119 110
-1.39667451381683 -0.454977810382843 2.7260000705719 212 129 119
-1.35590875148773 -0.456185400485992 2.7350001335144 217 129 121
-1.34738266468048 -0.4558085501194 2.73300004005432 218 129 119
-1.34181523323059 -0.456433981657028 2.73700022697449 238 149 139
-1.33525669574738 -0.45672732591629 2.73900008201599 247 158 148
-1.32966232299805 -0.457355618476868 2.74300003051758 246 157 147
-1.32405173778534 -0.45798534154892 2.74700021743774 244 155 145
-1.31938326358795 -0.458949893712997 2.75300002098084 249 163 149
-1.31754636764526 -0.460915982723236 2.76500010490417 249 165 151
-1.31801748275757 -0.463716596364975 2.78200006484985 210 130 130
-1.39467978477478 -0.461709976196289 2.72200012207031 185 103 94
-1.38764405250549 -0.461825132369995 2.72300004959106 179 97 88
-1.35744082927704 -0.464121401309967 2.73800015449524 199 114 105
-1.34890472888947 -0.46373787522316 2.73600006103516 205 116 106
-1.3408762216568 -0.463525533676147 2.7350001335144 230 141 131
-1.33334648609161 -0.463484257459641 2.7350001335144 244 155 145
-1.32727694511414 -0.463952928781509 2.73800015449524 239 150 140
-1.32216060161591 -0.464761942625046 2.74300003051758 239 152 142
-1.31989800930023 -0.466588914394379 2.75400018692017 243 155 147
-1.3194864988327 -0.469094753265381 2.76900005340576 237 153 151
-1.38807475566864 -0.466870337724686 2.70900011062622 167 84 78
-1.35550379753113 -0.470868974924088 2.73400020599365 179 94 85
-1.34697699546814 -0.470478862524033 2.73200011253357 183 94 84
-1.3394478559494 -0.470434844493866 2.73200011253357 215 126 116
-1.3309497833252 -0.470048189163208 2.73000001907349 237 148 138
-1.32537746429443 -0.470696181058884 2.73400020599365 235 146 136
-1.32123458385468 -0.471861988306046 2.74100017547607 231 144 134
-1.31993472576141 -0.47406205534935 2.75400018692017 240 152 146
-1.32047498226166 -0.476951777935028 2.77100014686584 236 154 154
-1.36260068416595 -0.478169023990631 2.73300004005432 186 104 95
-1.35654234886169 -0.478645354509354 2.73600006103516 188 106 96
-1.34850132465363 -0.478423535823822 2.7350001335144 178 91 81
-1.33998191356659 -0.478028446435928 2.73300004005432 210 123 113
-1.33147954940796 -0.477635204792023 2.73100018501282 233 144 134
-1.32493317127228 -0.47794309258461 2.73300004005432 234 145 135
-1.32079172134399 -0.479126870632172 2.74000024795532 222 134 128
-1.31757593154907 -0.480661690235138 2.74900007247925 229 138 136
-1.31860506534576 -0.48377138376236 2.76700019836426 233 148 148
-1.36314952373505 -0.485772877931595 2.73400020599365 189 107 97
-1.34854817390442 -0.48585256934166 2.7350001335144 154 69 59
-1.34100747108459 -0.485806077718735 2.7350001335144 198 113 103
-1.33201038837433 -0.485228568315506 2.73200011253357 229 140 130
-1.32594430446625 -0.485718250274658 2.7350001335144 224 135 125
-1.32179594039917 -0.486919909715652 2.74200010299683 215 127 121
-1.31713533401489 -0.487945348024368 2.7480001449585 224 133 131
-1.31530666351318 -0.490037560462952 2.76000022888184 235 148 148
-1.36419796943665 -0.493563443422318 2.73600006103516 174 92 83
-1.34958231449127 -0.493643254041672 2.73700022697449 157 74 64
-1.34203445911407 -0.493595480918884 2.73700022697449 189 106 96
-1.33302986621857 -0.493008524179459 2.73400020599365 221 134 124
-1.32598721981049 -0.493144571781158 2.7350001335144 225 137 129
-1.32087314128876 -0.494003504514694 2.74000024795532 211 125 119
-1.31621634960175 -0.495044112205505 2.74600005149841 227 138 135
-1.31343853473663 -0.496807217597961 2.75600004196167 233 146 144
-1.36325347423553 -0.500633478164673 2.73400020599365 180 98 89
-1.34963142871857 -0.501079559326172 2.73700022697449 151 69 59
-1.3415914773941 -0.500847518444061 2.73600006103516 179 97 87
-1.33210051059723 -0.500068187713623 2.73200011253357 201 116 107
-1.32603132724762 -0.50057178735733 2.7350001335144 221 133 125
-1.32139754295349 -0.501626133918762 2.74100017547607 217 131 125
-1.31721591949463 -0.502864837646484 2.7480001449585 228 142 138
-1.31300139427185 -0.504104971885681 2.75500011444092 233 148 146
-1.36231029033661 -0.507693707942963 2.73200011253357 185 103 94
-1.3506680727005 -0.508888483047485 2.73900008201599 155 73 63
-1.34311127662659 -0.50883823633194 2.73900008201599 180 98 88
-1.33409762382507 -0.508232414722443 2.73600006103516 193 110 101
-1.32753109931946 -0.508557260036469 2.73800015449524 207 122 113
-1.3219233751297 -0.509255051612854 2.74200010299683 210 125 116
-1.31629920005798 -0.509954512119293 2.74600005149841 218 134 130
-1.31208860874176 -0.511212587356567 2.75300002098084 234 147 145
-1.35630130767822 -0.51563173532486 2.7350001335144 195 115 106
-1.34316122531891 -0.516280770301819 2.73900008201599 176 94 84
-1.33609664440155 -0.516419529914856 2.74000024795532 196 112 106
-1.32951712608337 -0.516748368740082 2.74200010299683 200 112 104
-1.32437872886658 -0.517644226551056 2.74700021743774 200 112 106
-1.31634247303009 -0.517411112785339 2.74600005149841 212 126 122
-1.31022381782532 -0.517933368682861 2.74900007247925 233 144 142
-1.35734820365906 -0.523449838161469 2.73700022697449 171 91 82
-1.33712136745453 -0.524246990680695 2.74200010299683 197 113 107
-1.32907998561859 -0.524006485939026 2.74100017547607 204 116 108
-1.32201421260834 -0.524150013923645 2.74200010299683 197 109 103
-1.31398987770081 -0.523913025856018 2.74100017547607 207 121 115
-1.30836009979248 -0.524633467197418 2.74500012397766 226 137 134
-1.34375607967377 -0.531363248825073 2.74000024795532 180 97 87
-1.33619701862335 -0.531310737133026 2.74000024795532 205 113 104
-1.3281592130661 -0.531066179275513 2.73900008201599 214 125 115
-1.32157945632935 -0.531405091285706 2.74100017547607 201 112 102
-1.31451487541199 -0.531551837921143 2.74200010299683 203 118 109
-1.30935728549957 -0.532475769519806 2.74700021743774 220 132 126
-1.34381008148193 -0.538811802864075 2.74000024795532 159 76 67
-1.33478629589081 -0.5381680727005 2.73700022697449 219 125 116
-1.32772469520569 -0.53831273317337 2.73800015449524 229 137 128
-1.32162809371948 -0.538852453231812 2.74100017547607 205 116 106
-1.31599998474121 -0.539590358734131 2.74500012397766 211 124 114
-1.31083238124847 -0.540526509284973 2.75000023841858 229 139 133
-1.33581507205963 -0.546006917953491 2.73900008201599 191 104 94
-1.32874643802643 -0.546153008937836 2.74000024795532 232 138 129
-1.32312452793121 -0.546898722648621 2.74400019645691 219 127 118
-1.31556868553162 -0.546849012374878 2.74400019645691 211 124 114
-1.3108788728714 -0.547996819019318 2.75000023841858 220 132 126
-1.32879936695099 -0.553601145744324 2.74000024795532 188 101 91
-1.32221126556396 -0.553952276706696 2.74200010299683 216 124 115
-1.31465935707092 -0.553901314735413 2.74200010299683 208 119 109
-1.30901968479156 -0.554660081863403 2.74600005149841 211 123 117
-1.32081723213196 -0.560791432857513 2.73900008201599 187 103 97
-1.31279218196869 -0.560534477233887 2.73800015449524 201 115 109
-1.30716180801392 -0.561302840709686 2.74200010299683 201 115 109
-1.3118851184845 -0.567561864852905 2.73600006103516 192 111 108
-1.30578196048737 -0.56813246011734 2.73900008201599 186 102 100
-1.30251157283783 -0.569949209690094 2.7480001449585 200 118 118
