-1.69492650032043 0.909078359603882 4.6540002822876 141 60 56
-1.69894897937775 0.898613810539246 4.66500043869019 150 66 62
-1.70406424999237 0.888659417629242 4.67900037765503 150 66 62
-1.69752609729767 0.872638344764709 4.66100025177002 161 75 69
-1.63492274284363 0.810144603252411 4.45600032806396 254 169 159
-1.62035071849823 0.808889031410217 4.44900035858154 255 173 163
-1.61341023445129 0.811452805995941 4.46300029754639 255 173 163
-1.60675489902496 0.81419974565506 4.47800016403198 255 173 163
-1.57298624515533 0.815538823604584 4.4850001335144 253 173 166
-1.64400589466095 0.796646893024445 4.44800043106079 232 147 137
-1.63090348243713 0.796125829219818 4.44500017166138 236 149 139
-1.61781919002533 0.795605957508087 4.44200038909912 228 141 131
-1.60836827754974 0.796878516674042 4.44900035858154 227 142 130
-1.59852266311646 0.797973155975342 4.45500040054321 233 151 138
-1.58401679992676 0.796740412712097 4.44800043106079 246 158 144
-1.57520520687103 0.798374891281128 4.45700025558472 252 170 156
-1.56669723987579 0.800189614295959 4.46700000762939 249 167 153
-1.65304589271545 0.783192873001099 4.44000005722046 252 170 160
-1.64180421829224 0.783561110496521 4.44200038909912 255 169 157
-1.62908589839935 0.783224821090698 4.44000005722046 255 175 165
-1.66833984851837 0.767164170742035 4.41700029373169 252 170 160
-1.68561375141144 0.745617508888245 4.43100023269653 222 139 130
-1.68562602996826 0.733634352684021 4.43100023269653 247 164 154
-1.6736673116684 0.733647406101227 4.43100023269653 251 169 159
-1.78200602531433 0.741804003715515 4.55500030517578 209 121 107
-1.72537994384766 0.728305160999298 4.47200012207031 195 113 103
-1.7018129825592 0.723430454730988 4.44200038909912 213 133 124
-1.68677973747253 0.722139656543732 4.43400001525879 239 157 148
-1.67330348491669 0.721501767635345 4.43000030517578 241 158 154
-1.66210126876831 0.721842169761658 4.43200016021729 249 169 162
-1.63930118083954 0.722363829612732 4.4350004196167 196 116 116
-1.79943990707397 0.73155814409256 4.56800031661987 210 127 117
-1.76323544979095 0.721796631813049 4.50700044631958 180 92 76
-1.74135053157806 0.717801749706268 4.48200035095215 159 75 59
-1.72384738922119 0.715569794178009 4.4680004119873 208 125 115
-1.70182490348816 0.711417078971863 4.44200038909912 220 138 128
-1.68489098548889 0.709347665309906 4.42900037765503 237 154 148
-1.67369532585144 0.709681689739227 4.43100023269653 236 155 152
-1.66511678695679 0.711138248443604 4.44000005722046 244 164 164
-1.7522896528244 0.705197751522064 4.47900009155273 187 101 85
-1.73514366149902 0.703160226345062 4.46600008010864 181 97 81
-1.71884250640869 0.701438784599304 4.45500040054321 204 121 111
-1.6972393989563 0.697514176368713 4.43000030517578 216 134 124
-1.6818608045578 0.69611006975174 4.4210000038147 232 149 143
-1.67144358158112 0.696753978729248 4.42500019073486 249 164 162
-1.66438269615173 0.698816239833832 4.43800020217896 253 169 170
-1.71306622028351 0.687068700790405 4.44000005722046 208 126 113
-1.694953083992 0.684604823589325 4.42400026321411 223 136 126
-1.68035268783569 0.683534741401672 4.41700029373169 235 149 145
-1.66994750499725 0.684168100357056 4.4210000038147 250 166 166
-1.71384966373444 0.67536449432373 4.44200038909912 189 106 96
-1.69803082942963 0.673856377601624 4.43200016021729 234 147 137
-1.6834100484848 0.672805547714233 4.42500019073486 241 155 151
-1.67109596729279 0.672668218612671 4.42400026321411 240 160 160
-1.70340776443481 0.663960635662079 4.44600009918213 241 151 143
-1.68913090229034 0.663078367710114 4.44000005722046 243 162 159
-1.67677712440491 0.6629438996315 4.43900012969971 219 139 139
-1.70303785800934 0.651789546012878 4.44500017166138 235 147 141
-1.69066691398621 0.651656925678253 4.44400024414063 229 148 145
-1.680948138237 0.6525519490242 4.45000028610229 213 133 133
-1.69807088375092 0.637896716594696 4.43200016021729 212 129 125
-1.68801867961884 0.638630568981171 4.4370002746582 231 148 144
-1.68323028087616 0.641380608081818 4.45600032806396 223 142 139
-1.6891747713089 0.62705409526825 4.44000005722046 229 148 144
-0.0357080474495888 0.348883152008057 3.63600015640259 233 129 111
-0.0258305389434099 0.349364340305328 3.64100027084351 255 138 125
-0.0159038212150335 0.349365323781967 3.64100027084351 255 128 122
-0.00596555275842547 0.348694115877151 3.6340000629425 255 127 121
0.00393565511330962 0.348118484020233 3.62800025939941 255 132 126
0.013830809853971 0.348214030265808 3.62900018692017 255 132 126
0.0237313620746136 0.348309099674225 3.63000011444092 244 120 114
0.0336187481880188 0.348211824893951 3.62900018692017 250 128 121
-0.0355034321546555 0.337027668952942 3.61500024795532 251 135 118
-0.0256969146430492 0.337681621313095 3.62200021743774 255 130 116
-0.0158390253782272 0.338055521249771 3.62600016593933 253 126 117
-0.00593299139291048 0.336937218904495 3.61400008201599 255 123 115
0.00392281590029597 0.33712375164032 3.61600017547607 255 125 119
0.0137666463851929 0.336750417947769 3.61200022697449 255 127 119
0.0236147604882717 0.33674955368042 3.61200022697449 255 124 116
0.0333886668086052 0.336002439260483 3.60400009155273 255 127 119
0.0432747006416321 0.336466878652573 3.60900020599365 255 126 118
0.0532025471329689 0.337024092674255 3.61500024795532 255 129 123
0.0631803423166275 0.337674081325531 3.62200021743774 255 130 124
0.0730145275592804 0.337484538555145 3.62000012397766 255 132 126
0.0828604176640511 0.337387830018997 3.61900019645691 249 125 120
0.0927517712116241 0.337477117776871 3.62000012397766 249 128 125
0.102478139102459 0.337006658315659 3.61500024795532 249 130 127
0.112518645823002 0.337561190128326 3.62100028991699 250 133 132
0.122422412037849 0.337649136781693 3.62200021743774 255 148 148
0.132550343871117 0.338295996189117 3.62900018692017 255 171 171
-0.0450226776301861 0.324740409851074 3.58800005912781 220 140 117
-0.0352791100740433 0.325104236602783 3.59200024604797 255 135 119
-0.0255490615963936 0.325920104980469 3.6010000705719 255 124 112
-0.0157479923218489 0.326283067464828 3.60500025749207 255 124 116
-0.0059168366715312 0.326193004846573 3.60400009155273 255 121 113
0.00391214061528444 0.326374053955078 3.60600018501282 255 123 115
0.0137138962745667 0.3256496489048 3.59800028800964 255 126 118
0.0235438905656338 0.325920343399048 3.6010000705719 255 121 113
0.0332419127225876 0.324742466211319 3.58800005912781 255 125 115
0.0430727638304234 0.325102865695953 3.59200024604797 253 122 112
0.0528663918375969 0.325100779533386 3.59200024604797 255 124 116
0.062781922519207 0.325731784105301 3.5990002155304 255 125 117
0.0725538283586502 0.325547814369202 3.59700012207031 255 124 116
0.0824519321322441 0.32590639591217 3.6010000705719 255 126 118
0.0923715233802795 0.326264649629593 3.60500025749207 255 125 119
0.10248264670372 0.327165424823761 3.61500024795532 255 123 117
0.112306073307991 0.327070236206055 3.61400008201599 255 124 122
0.121988393366337 0.326612651348114 3.60900020599365 253 124 124
0.131898686289787 0.326788157224655 3.61100006103516 252 123 123
0.141740843653679 0.326782166957855 3.61100006103516 253 126 126
0.151960253715515 0.327590316534042 3.62000012397766 250 125 125
0.161512866616249 0.326950073242188 3.61300015449524 251 121 123
0.171263858675957 0.326761871576309 3.61100006103516 255 127 129
0.181053444743156 0.326663792133331 3.6100001335144 231 113 114
0.19073112308979 0.326384305953979 3.60700011253357 231 113 114
0.200058132410049 0.325561583042145 3.59800028800964 234 125 123
0.209568589925766 0.325100392103195 3.59300017356873 217 136 133
-0.0448112934827805 0.313478618860245 3.57100009918213 232 137 118
-0.0350841917097569 0.313568115234375 3.57200026512146 255 134 120
-0.0254011619836092 0.314271658658981 3.58000016212463 255 129 117
-0.0156962480396032 0.315413802862167 3.59300017356873 255 125 117
-0.00589246582239866 0.315063118934631 3.58900022506714 255 123 115
0.00389169598929584 0.314887553453445 3.58700013160706 255 121 113
0.0136611228808761 0.314623832702637 3.58400011062622 255 122 114
0.023459903895855 0.314974188804626 3.58800005912781 255 121 113
0.0332062877714634 0.314621835947037 3.58400011062622 255 123 115
0.0429187342524529 0.314181298017502 3.57900023460388 255 123 115
0.0527067668735981 0.314354807138443 3.58100008964539 255 119 114
0.0624880604445934 0.314440160989761 3.58200025558472 255 120 115
0.0722745507955551 0.314525067806244 3.58300018310547 255 121 116
0.0819975286722183 0.314346253871918 3.58100008964539 255 124 119
0.0920423790812492 0.315308123826981 3.59200024604797 255 119 114
0.10200510174036 0.315830707550049 3.59800028800964 255 121 116
0.112186595797539 0.316879510879517 3.6100001335144 255 122 117
0.121689401566982 0.315996766090393 3.60000014305115 253 115 111
0.131429463624954 0.315815895795822 3.59800028800964 254 117 113
0.140883311629295 0.315020173788071 3.58900022506714 255 120 116
0.150917246937752 0.315540641546249 3.59500026702881 255 121 117
0.160491541028023 0.315095245838165 3.59000015258789 255 123 119
0.17032253742218 0.315176069736481 3.59100008010864 255 121 117
0.180108189582825 0.315168708562851 3.59100008010864 255 120 116
0.190051764249802 0.315424233675003 3.59400010108948 255 117 114
0.199454933404922 0.314801782369614 3.58700013160706 255 120 115
0.20893582701683 0.314354449510574 3.58200025558472 255 120 117
0.218510791659355 0.314082264900208 3.57900023460388 251 122 122
0.228004813194275 0.313721984624863 3.57500028610229 255 125 127
0.23807467520237 0.314151108264923 3.58000016212463 233 115 116
-0.0446500368416309 0.302648484706879 3.55800008773804 248 134 119
-0.0349874384701252 0.30299037694931 3.5620002746582 255 127 115
-0.025345467031002 0.30384224653244 3.57200026512146 255 123 114
-0.0156444814056158 0.30460861325264 3.58100008964539 255 122 114
-0.00588122056797147 0.304694175720215 3.58200025558472 255 123 115
0.00387666979804635 0.303928673267365 3.57300019264221 255 122 114
0.0136121436953545 0.303758144378662 3.57100009918213 255 125 117
0.0233693514019251 0.304012566804886 3.57400012016296 255 123 115
0.0331057608127594 0.303926318883896 3.57300019264221 255 119 111
0.0428485795855522 0.303924769163132 3.57300019264221 255 123 118
0.0525765083730221 0.303837716579437 3.57200026512146 255 124 119
0.0623511150479317 0.30400550365448 3.57400012016296 255 121 116
0.072035513818264 0.30374750494957 3.57100009918213 253 115 110
0.0818406641483307 0.30399951338768 3.57400012016296 255 119 114
0.0916874781250954 0.304336190223694 3.57800006866455 255 122 117
0.101697489619255 0.305097728967667 3.58700013160706 255 123 118
0.111538641154766 0.305263429880142 3.58900022506714 255 120 115
0.121221214532852 0.305003464221954 3.5860002040863 255 121 116
0.130777403712273 0.304487973451614 3.58000016212463 255 120 115
0.140261083841324 0.303887039422989 3.57300019264221 255 119 115
0.149999916553497 0.303881108760834 3.57300019264221 255 121 117
0.159514650702477 0.303449541330338 3.56800007820129 255 120 116
0.169380947947502 0.303697943687439 3.57100009918213 255 120 116
0.179162636399269 0.303775936365128 3.57200026512146 255 122 119
0.189107730984688 0.304108589887619 3.57600021362305 255 116 113
0.198907062411308 0.304185718297958 3.5770001411438 255 116 113
0.208827748894691 0.304432570934296 3.58000016212463 255 116 113
0.218092381954193 0.303743690252304 3.57200026512146 254 116 112
0.227631479501724 0.303479582071304 3.56900024414063 254 113 112
0.237884879112244 0.304150432348251 3.5770001411438 248 115 113
-0.0541400872170925 0.291803628206253 3.54400014877319 250 138 123
-0.0445012636482716 0.291970282793045 3.54600024223328 255 132 119
-0.0349299311637878 0.292795270681381 3.55600023269653 255 130 120
-0.0252116769552231 0.292549431324005 3.5530002117157 255 130 120
-0.0155446352437139 0.292961984872818 3.55800008773804 255 122 113
-0.00584041140973568 0.292880028486252 3.55700016021729 255 127 118
0.00385512714274228 0.29255074262619 3.5530002117157 255 121 112
0.0135440826416016 0.292550384998322 3.5530002117157 255 124 115
0.0232199057936668 0.292384952306747 3.55100011825562 255 121 113
0.0329495929181576 0.292795568704605 3.55600023269653 255 120 112
0.0425864830613136 0.292382329702377 3.55100011825562 255 126 118
0.0522842593491077 0.292462766170502 3.55200028419495 255 125 117
0.0619523897767067 0.292378127574921 3.55100011825562 255 123 118
0.0717156752943993 0.292704820632935 3.5550000667572 255 120 115
0.0815005004405975 0.293031096458435 3.55900025367737 255 122 117
0.091358058154583 0.293521612882614 3.56500005722046 255 118 113
0.101191282272339 0.293847143650055 3.56900024414063 255 122 117
0.110921576619148 0.293842852115631 3.56900024414063 255 126 118
0.1204824000597 0.29342657327652 3.56400012969971 255 125 117
0.130125120282173 0.293256908655167 3.5620002746582 255 122 114
0.139677882194519 0.292922258377075 3.55800008773804 255 120 115
0.149376228451729 0.292916476726532 3.55800008773804 255 120 115
0.158716306090355 0.292251765727997 3.55000019073486 255 118 115
0.168676257133484 0.292739242315292 3.55600023269653 255 119 116
0.178367286920547 0.292732357978821 3.55600023269653 255 118 115
0.188480690121651 0.293383657932281 3.56400012969971 255 117 114
0.198303326964378 0.29354065656662 3.56600022315979 255 115 112
0.208252742886543 0.293861925601959 3.57000017166138 255 119 116
0.217612579464912 0.293359667062759 3.56400012969971 255 117 116
0.227257817983627 0.29326868057251 3.56300020217896 255 117 116
0.237827807664871 0.294329583644867 3.57600021362305 251 122 120
-0.0635722652077675 0.281113266944885 3.5310001373291 232 144 128
-0.0538672432303429 0.280717521905899 3.52600026130676 252 133 120
-0.0443022213876247 0.281037896871567 3.53000020980835 255 129 119
-0.0347446762025356 0.281596720218658 3.53700017929077 255 126 116
-0.0250778459012508 0.281359016895294 3.53400015830994 255 127 119
-0.0154447611421347 0.281439453363419 3.53500008583069 255 124 116
-0.00580616015940905 0.28151947259903 3.53600025177002 255 122 114
0.00383683410473168 0.281519532203674 3.53600025177002 255 124 115
0.013464561663568 0.281200706958771 3.53200006484985 255 124 115
0.0231031179428101 0.281279623508453 3.53300023078918 255 125 117
0.0327655710279942 0.281517386436462 3.53600025177002 255 124 116
0.0424202606081963 0.281595528125763 3.53700017929077 255 125 117
0.0520066395401955 0.28127521276474 3.53300023078918 255 126 118
0.0617105700075626 0.281591445207596 3.53700017929077 255 124 119
0.0713957250118256 0.281748116016388 3.53900027275085 255 124 119
0.0811373069882393 0.282063603401184 3.54300022125244 255 123 118
0.0907466113567352 0.281901031732559 3.54100012779236 255 125 120
0.100599817931652 0.282454580068588 3.54800009727478 255 126 121
0.110273256897926 0.282450526952744 3.54800009727478 255 128 120
0.119946226477623 0.282446056604385 3.54800009727478 255 123 114
0.129436105489731 0.282043218612671 3.54300022125244 255 125 117
0.139015957713127 0.28187882900238 3.54100012779236 255 120 115
0.148752301931381 0.282032459974289 3.54300022125244 255 118 113
0.15805184841156 0.281389713287354 3.53500008583069 255 121 116
0.168018713593483 0.281940639019012 3.54200005531311 255 118 115
0.177722126245499 0.282013654708862 3.54300022125244 255 114 111
0.187641844153404 0.282404631376266 3.54800009727478 255 121 118
0.197198793292046 0.282238066196442 3.54600024223328 255 114 111
0.207094073295593 0.282548725605011 3.55000019073486 255 117 114
0.215972349047661 0.281506031751633 3.53700017929077 255 117 116
0.226182237267494 0.282213866710663 3.54600024223328 255 122 118
-0.0632326155900955 0.270033717155457 3.51200008392334 252 137 127
-0.0537012442946434 0.270266562700272 3.51500010490417 255 133 124
-0.0441156513988972 0.27026841044426 3.51500010490417 255 128 122
-0.0345593579113483 0.270500600337982 3.51800012588501 255 127 121
-0.0249297842383385 0.270117253065109 3.51300024986267 255 126 118
-0.0153623381629586 0.270348697900772 3.51600027084351 255 128 120
-0.00577025720849633 0.270195305347443 3.51400017738342 254 124 116
0.00381093751639128 0.270041525363922 3.51200008392334 255 124 114
0.0133812082931399 0.269887447357178 3.51000022888184 255 126 116
0.0229993723332882 0.270424991846085 3.51700019836426 255 128 118
0.0326556265354156 0.270962208509445 3.52400016784668 255 127 117
0.0422419831156731 0.27080699801445 3.5220000743866 255 122 114
0.0517731010913849 0.270420789718628 3.51700019836426 255 126 118
0.0613465346395969 0.270341783761978 3.51600027084351 255 123 115
0.0710151344537735 0.270646810531616 3.52000021934509 255 126 120
0.0805449634790421 0.270413309335709 3.51700019836426 255 125 119
0.0901093631982803 0.27033320069313 3.51600027084351 255 124 116
0.0998097285628319 0.270637184381485 3.52000021934509 255 125 117
0.10978015512228 0.271555840969086 3.53200006484985 255 126 117
0.119274646043777 0.271244019269943 3.52800011634827 255 123 114
0.128673806786537 0.270778089761734 3.5220000743866 255 125 117
0.138000458478928 0.270234912633896 3.51500010490417 255 120 112
0.147582322359085 0.270229607820511 3.51500010490417 255 122 117
0.157163590192795 0.270223915576935 3.51500010490417 255 119 114
0.166839137673378 0.270371645689011 3.51700019836426 255 116 113
0.176424592733383 0.27036526799202 3.51700019836426 255 119 116
0.186326697468758 0.270819783210754 3.52300024032593 255 117 114
0.195704638957977 0.270505219697952 3.51900005340576 255 116 113
0.205293372273445 0.270497798919678 3.51900005340576 255 117 116
0.214514926075935 0.270028859376907 3.51300024986267 255 121 120
0.224787369370461 0.270866304636002 3.52400016784668 248 120 115
-0.0630188956856728 0.259575754404068 3.50000023841858 240 128 122
-0.053489338606596 0.259652018547058 3.50100016593933 239 123 116
-0.0439039207994938 0.259431332349777 3.4980001449585 255 132 127
-0.0343641601502895 0.259432733058929 3.4980001449585 255 132 127
-0.0248739365488291 0.259952992200851 3.50500011444092 255 131 126
-0.015336693264544 0.260324567556381 3.51000022888184 255 132 126
-0.00575569225475192 0.259954124689102 3.50500011444092 255 126 120
0.00379697233438492 0.259509146213531 3.49900007247925 255 127 119
0.0133435819298029 0.259582996368408 3.50000023841858 255 129 121
0.022960988804698 0.260398179292679 3.51100015640259 255 132 122
0.0325549021363258 0.260545492172241 3.51300024986267 255 126 116
0.0421116128563881 0.260395795106888 3.51100015640259 255 131 123
0.0516425259411335 0.260171562433243 3.50800013542175 255 123 117
0.0611394308507442 0.259872883558273 3.50400018692017 255 126 120
0.070795826613903 0.260241270065308 3.5090000629425 255 126 120
0.0803418159484863 0.260164350271225 3.50800013542175 255 124 118
0.089882031083107 0.260087132453918 3.507000207901 255 123 115
0.0994731336832047 0.260157853364944 3.50800013542175 255 123 115
0.109193630516529 0.260524839162827 3.51300024986267 255 127 119
0.118839509785175 0.260669022798538 3.51500010490417 255 120 112
0.127911299467087 0.259626358747482 3.50100016593933 255 127 119
0.137298837304115 0.259324938058853 3.49700021743774 255 123 115
0.146873936057091 0.259393960237503 3.4980001449585 255 118 113
0.156453937292099 0.259462624788284 3.49900007247925 255 122 117
0.166133627295494 0.25967925786972 3.50200009346008 255 121 116
0.17577888071537 0.25982141494751 3.50400018692017 255 119 116
0.185593008995056 0.260185688734055 3.5090000629425 255 114 111
0.194655060768127 0.259511560201645 3.50000023841858 255 114 111
0.203842297196388 0.259059548377991 3.49400019645691 255 116 115
0.213362455368042 0.259052127599716 3.49400019645691 247 116 114
0.00377540430054069 0.248546466231346 3.47900009155273 222 136 132
0.0132792461663485 0.248831942677498 3.4830002784729 233 134 132
0.0228375531733036 0.24947427213192 3.49200010299683 243 131 117
0.0323058515787125 0.249044641852379 3.48600006103516 251 135 129
0.0417892672121525 0.248900473117828 3.48400020599365 255 129 123
0.0512910559773445 0.248898833990097 3.48400020599365 255 129 123
0.0608275234699249 0.249039724469185 3.48600006103516 255 125 119
0.0704351887106895 0.249394625425339 3.49100017547607 255 126 120
0.0800469517707825 0.249677717685699 3.49500012397766 255 123 117
0.0896289348602295 0.249817624688148 3.49700021743774 255 124 118
0.0990796834230423 0.249600008130074 3.49400019645691 254 122 116
0.108513690531254 0.249382078647614 3.49100017547607 255 126 118
0.117930874228477 0.249163806438446 3.48800015449524 255 122 114
0.127185106277466 0.24865947663784 3.48100018501282 255 121 113
0.136793285608292 0.24886916577816 3.48400020599365 255 124 116
0.1463752835989 0.249007076025009 3.48600006103516 255 122 117
0.155699297785759 0.248716101050377 3.48200011253357 255 121 116
0.165143251419067 0.248639091849327 3.48100018501282 255 118 113
0.174882084131241 0.248990327119827 3.48600006103516 255 117 112
0.184806182980537 0.249555498361588 3.49400019645691 254 113 110
0.193883240222931 0.248977541923523 3.48600006103516 255 118 117
0.203032657504082 0.248542189598083 3.48000025749207 255 123 122
0.212820306420326 0.248892113566399 3.4850001335144 250 121 121
0.0606551319360733 0.238853394985199 3.4760000705719 228 127 126
0.0702156871557236 0.239126056432724 3.48000025749207 231 118 118
0.0797519609332085 0.239260941743851 3.48200011253357 254 130 130
0.0892475619912148 0.239258080720901 3.48200011253357 253 129 129
0.0988278687000275 0.239461034536362 3.4850001335144 255 132 132
0.108082219958305 0.238907843828201 3.47700023651123 252 129 126
0.117427751421928 0.238629207015038 3.47300004959106 253 130 127
0.126751020550728 0.238350242376328 3.46900010108948 252 123 121
0.13648384809494 0.238826766610146 3.4760000705719 252 121 119
0.146002382040024 0.23889072239399 3.47700023651123 255 122 118
0.155346900224686 0.238679558038712 3.4740002155304 255 122 118
0.165006548166275 0.238948985934258 3.47800016403198 255 122 118
0.174637198448181 0.239149436354637 3.48100018501282 255 122 118
0.184177711606026 0.239212110638618 3.48200011253357 255 119 114
0.193111151456833 0.238518834114075 3.47200012207031 255 120 119
0.202106043696404 0.237962692975998 3.46400022506714 255 123 121
0.212033599615097 0.238505348563194 3.47200012207031 222 128 129
0.126280173659325 0.228039517998695 3.45600008964539 255 144 144
0.135860100388527 0.228299200534821 3.46000027656555 255 137 138
0.145167350769043 0.228096723556519 3.45700025558472 251 127 128
0.15463650226593 0.228157833218575 3.45800018310547 247 120 120
0.164395198225975 0.228614553809166 3.46500015258789 243 114 114
0.173689678311348 0.228411167860031 3.46200013160706 255 126 126
0.182914257049561 0.228141516447067 3.45800018310547 254 123 121
0.192060679197311 0.227805644273758 3.45300006866455 255 125 126
0.201470792293549 0.227799311280251 3.45300006866455 242 113 113
