-0.550021052360535 -0.31079837679863 2.39500021934509 255 145 120
-0.5433309674263 -0.310690402984619 2.39400005340576 255 150 124
-0.536869585514069 -0.310712158679962 2.39400005340576 255 149 123
-0.529964089393616 -0.310474336147308 2.39200019836426 255 147 123
-0.524162769317627 -0.310885459184647 2.39500021934509 255 145 121
-0.517695724964142 -0.3109070956707 2.39500021934509 255 145 123
-0.511868119239807 -0.311318188905716 2.39800000190735 255 152 132
-0.504548013210297 -0.310820460319519 2.39400005340576 255 153 135
-0.498288810253143 -0.310971796512604 2.39500021934509 255 151 133
-0.492433786392212 -0.311382740736008 2.39800000190735 245 145 129
-0.487169533967972 -0.312183260917664 2.40400004386902 206 120 104
-0.619220495223999 -0.316118031740189 2.38800001144409 243 136 115
-0.61252897977829 -0.316007375717163 2.38700008392334 255 146 121
-0.605588138103485 -0.315764427185059 2.38500022888184 255 145 121
-0.599159717559814 -0.315786242485046 2.38500022888184 255 152 127
-0.593476057052612 -0.316205352544785 2.38800001144409 255 154 129
-0.587775528430939 -0.316624581813812 2.39100003242493 255 155 127
-0.580842316150665 -0.31638178229332 2.38900017738342 255 149 120
-0.574159324169159 -0.316271305084229 2.38800001144409 255 148 119
-0.567480981349945 -0.316160947084427 2.38700008392334 255 149 121
-0.561512351036072 -0.316447913646698 2.38900017738342 255 151 123
-0.555067241191864 -0.316469997167587 2.38900017738342 255 148 120
-0.549080431461334 -0.316756993532181 2.39100003242493 255 147 122
-0.542628109455109 -0.31677907705307 2.39100003242493 255 149 124
-0.535502135753632 -0.316403657197952 2.38800001144409 255 145 120
-0.529056012630463 -0.316425681114197 2.38800001144409 255 146 121
-0.522827804088593 -0.316580176353455 2.38900017738342 255 145 121
-0.516809344291687 -0.316867142915726 2.39100003242493 255 150 129
-0.510352194309235 -0.316889047622681 2.39100003242493 255 150 128
-0.503472626209259 -0.316645801067352 2.38900017738342 255 149 129
-0.49722695350647 -0.316800147294998 2.39000010490417 255 146 126
-0.490769535303116 -0.316821843385696 2.39000010490417 255 150 129
-0.484716325998306 -0.317108601331711 2.39200019836426 255 155 134
-0.47785159945488 -0.316864967346191 2.39000010490417 255 159 138
-0.617902278900146 -0.321908324956894 2.38300013542175 251 137 122
-0.610967516899109 -0.321660101413727 2.38100004196167 255 137 114
-0.603534877300262 -0.321141690015793 2.37700009346008 252 136 112
-0.596876800060272 -0.321028620004654 2.37600016593933 253 139 114
-0.591217398643494 -0.321456074714661 2.37900018692017 255 145 117
-0.585786819458008 -0.322018802165985 2.38300013542175 255 149 120
-0.578875124454498 -0.32177072763443 2.38100004196167 255 149 120
-0.571973323822021 -0.321522682905197 2.37900018692017 255 149 120
-0.565319180488586 -0.32140976190567 2.37800002098084 255 148 119
-0.559609830379486 -0.321837574243546 2.38100004196167 255 150 122
-0.553650975227356 -0.322130233049393 2.38300013542175 255 150 122
-0.547680497169495 -0.322422981262207 2.38500022888184 255 151 123
-0.541698217391968 -0.322715669870377 2.38700008392334 255 151 126
-0.534807324409485 -0.322467595338821 2.38500022888184 255 148 120
-0.527926206588745 -0.322219461202621 2.38300013542175 254 142 118
-0.521054983139038 -0.321971207857132 2.38100004196167 255 148 127
-0.51462584733963 -0.321993410587311 2.38100004196167 255 144 123
-0.508195817470551 -0.3220154941082 2.38100004196167 255 146 125
-0.501764714717865 -0.322037547826767 2.38100004196167 255 150 126
-0.495540767908096 -0.322194844484329 2.382000207901 255 143 118
-0.489105075597763 -0.322216778993607 2.382000207901 255 149 121
-0.482465624809265 -0.322103321552277 2.38100004196167 255 145 117
-0.475830674171448 -0.321989774703979 2.38000011444092 255 149 121
-0.469989001750946 -0.322417318820953 2.38300013542175 255 146 122
-0.464130043983459 -0.32284477353096 2.38600015640259 255 151 129
-0.458253920078278 -0.323272228240967 2.38900017738342 255 149 129
-0.451036661863327 -0.322752326726913 2.38500022888184 255 156 135
-0.444399267435074 -0.322638183832169 2.3840000629425 255 154 136
-0.437582522630692 -0.322388589382172 2.382000207901 210 126 103
-0.627545237541199 -0.326662421226501 2.37100005149841 248 161 139
-0.622467279434204 -0.327373296022415 2.37600016593933 254 147 121
-0.61658376455307 -0.327670931816101 2.37800002098084 255 137 118
-0.609919011592865 -0.327555298805237 2.37700009346008 254 135 114
-0.602751016616821 -0.327164113521576 2.37400007247925 255 141 117
-0.596100986003876 -0.327048599720001 2.3730001449585 255 144 119
-0.589455604553223 -0.326933145523071 2.37200021743774 255 142 117
-0.582814753055573 -0.326817661523819 2.37100005149841 255 143 115
-0.576664745807648 -0.32697793841362 2.37200021743774 253 140 111
-0.570027589797974 -0.326862543821335 2.37100005149841 255 147 118
-0.563632786273956 -0.326885014772415 2.37100005149841 255 146 117
-0.557472229003906 -0.327045410871506 2.37200021743774 255 150 121
-0.551537573337555 -0.327343672513962 2.37400007247925 255 146 117
-0.545361697673798 -0.327504098415375 2.375 255 148 120
-0.539633333683014 -0.327940374612808 2.37800002098084 255 148 120
-0.533215224742889 -0.327962875366211 2.37800002098084 255 153 125
-0.527017712593079 -0.328123360872269 2.37900018692017 255 148 124
-0.519938468933105 -0.327732026576996 2.37600016593933 254 141 120
-0.512874603271484 -0.327340632677078 2.3730001449585 255 142 121
-0.506252706050873 -0.327224999666214 2.37200021743774 255 146 125
-0.500056743621826 -0.327385246753693 2.3730001449585 255 147 122
-0.493854433298111 -0.327545434236526 2.37400007247925 255 144 116
-0.487235099077225 -0.327429592609406 2.3730001449585 255 144 115
-0.480822741985321 -0.327451676130295 2.3730001449585 255 145 116
-0.474209517240524 -0.327335625886917 2.37200021743774 255 146 118
-0.468192279338837 -0.327633500099182 2.37400007247925 255 145 120
-0.46255224943161 -0.32820737361908 2.37800002098084 255 148 124
-0.456506013870239 -0.328505128622055 2.38000011444092 254 141 120
-0.449880629777908 -0.328388690948486 2.37900018692017 255 143 123
-0.443259537220001 -0.328272074460983 2.37800002098084 251 138 118
-0.436459213495255 -0.328017264604568 2.37600016593933 255 149 129
-0.429849624633789 -0.327900350093842 2.375 254 151 129
-0.423244506120682 -0.327783316373825 2.37400007247925 249 151 128
-0.630702316761017 -0.331372618675232 2.35900020599365 228 141 131
-0.624611914157867 -0.331535071134567 2.3600001335144 252 139 128
-0.619301438331604 -0.332119107246399 2.36400008201599 255 139 124
-0.613450169563293 -0.332422345876694 2.36600017547607 255 144 123
-0.607074320316315 -0.332444697618485 2.36600017547607 255 147 123
-0.599935948848724 -0.332045525312424 2.36300015449524 255 149 124
-0.593566656112671 -0.332067996263504 2.36300015449524 255 144 119
-0.586948156356812 -0.331950008869171 2.36200022697449 255 144 119
-0.581071555614471 -0.332253605127335 2.36400008201599 255 140 115
-0.575183510780334 -0.332557380199432 2.36600017547607 255 140 115
-0.568562507629395 -0.332439452409744 2.36500000953674 255 138 113
-0.561708509922028 -0.332181006669998 2.36300015449524 255 137 112
-0.554864406585693 -0.33192253112793 2.36100006103516 255 139 112
-0.548262476921082 -0.331804662942886 2.3600001335144 255 142 113
-0.542354047298431 -0.332108557224274 2.36200022697449 255 152 123
-0.537114560604095 -0.332834303379059 2.36700010299683 255 151 122
-0.531623005867004 -0.333419501781464 2.37100005149841 255 148 120
-0.525222897529602 -0.333442270755768 2.37100005149841 253 141 117
-0.518384218215942 -0.33318367600441 2.36900019645691 255 147 126
-0.51112312078476 -0.33264371752739 2.36500000953674 255 142 118
-0.504949748516083 -0.332806915044785 2.36600017547607 255 145 121
-0.498348593711853 -0.332688719034195 2.36500000953674 255 149 124
-0.491959929466248 -0.332711189985275 2.36500000953674 255 146 117
-0.485570281744003 -0.332733541727066 2.36500000953674 255 148 116
-0.479382276535034 -0.332896530628204 2.36600017547607 255 148 116
-0.473387777805328 -0.333200097084045 2.36800003051758 254 141 112
-0.466987043619156 -0.333222240209579 2.36800003051758 255 142 117
-0.461168825626373 -0.333666443824768 2.37100005149841 255 143 119
-0.454757958650589 -0.333688348531723 2.37100005149841 255 146 122
-0.448346138000488 -0.333710134029388 2.37100005149841 255 142 118
-0.441933304071426 -0.333731830120087 2.37100005149841 251 137 113
-0.435335755348206 -0.333612620830536 2.37000012397766 255 144 119
-0.428742587566376 -0.333493232727051 2.36900019645691 255 148 120
-0.421618968248367 -0.332951307296753 2.36500000953674 255 146 117
-0.415744990110397 -0.333394706249237 2.36800003051758 255 144 115
-0.409680873155594 -0.33369717001915 2.37000012397766 255 149 121
-0.403604984283447 -0.333999574184418 2.37200021743774 255 162 139
-0.629343509674072 -0.337041348218918 2.35400009155273 255 138 121
-0.6224724650383 -0.336777091026306 2.35199999809265 255 139 122
-0.616921424865723 -0.337228983640671 2.35500001907349 255 145 124
-0.610835075378418 -0.337394565343857 2.35600018501282 255 145 121
-0.604229390621185 -0.337273806333542 2.35500001907349 255 148 124
-0.597120702266693 -0.336866736412048 2.35199999809265 255 143 118
-0.591283321380615 -0.337175786495209 2.35400009155273 255 140 115
-0.585682988166809 -0.337628275156021 2.35700011253357 255 146 121
-0.579574048519135 -0.337794274091721 2.35800004005432 255 138 113
-0.573215961456299 -0.33781710267067 2.35800004005432 255 143 120
-0.566616594791412 -0.337696701288223 2.35700011253357 255 141 118
-0.559546411037445 -0.337289750576019 2.35400009155273 255 140 117
-0.553196549415588 -0.337312638759613 2.35400009155273 255 143 116
-0.547310471534729 -0.337622135877609 2.35600018501282 255 147 118
-0.541183114051819 -0.337788373231888 2.35700011253357 255 146 117
-0.535503387451172 -0.338241249322891 2.3600001335144 255 144 115
-0.52935802936554 -0.338407516479492 2.36100006103516 255 145 117
-0.523206472396851 -0.338573813438416 2.36200022697449 255 141 116
-0.516173303127289 -0.338166624307632 2.35900020599365 255 149 125
-0.509587585926056 -0.338046044111252 2.35800004005432 255 142 118
-0.503646612167358 -0.33835557103157 2.3600001335144 255 145 121
-0.497483164072037 -0.338521659374237 2.36100006103516 255 147 119
-0.491105407476425 -0.338544368743896 2.36100006103516 255 153 124
-0.48472660779953 -0.338566958904266 2.36100006103516 255 150 118
-0.478549510240555 -0.338732898235321 2.36200022697449 255 146 114
-0.47216609120369 -0.338755339384079 2.36200022697449 255 142 113
-0.465584486722946 -0.338634252548218 2.36100006103516 255 145 118
-0.459396302700043 -0.338799923658371 2.36200022697449 255 145 120
-0.453201711177826 -0.338965475559235 2.36300015449524 255 141 117
-0.446811586618423 -0.338987499475479 2.36300015449524 253 139 115
-0.440606832504272 -0.339152783155441 2.36400008201599 255 145 120
-0.434212058782578 -0.339174538850784 2.36400008201599 255 149 122
-0.427635312080383 -0.339052677154541 2.36300015449524 255 143 114
-0.420884668827057 -0.338787108659744 2.36100006103516 254 139 108
-0.414494961500168 -0.338808387517929 2.36100006103516 255 138 109
-0.408277124166489 -0.338973015546799 2.36200022697449 255 144 115
-0.401712566614151 -0.338850438594818 2.36100006103516 255 145 116
-0.394984990358353 -0.338584125041962 2.35900020599365 255 147 122
-0.388596653938293 -0.338604658842087 2.35900020599365 255 144 123
-0.382693499326706 -0.339055687189102 2.36200022697449 255 143 122
-0.376454383134842 -0.3392194211483 2.36300015449524 255 142 122
-0.369739055633545 -0.338952243328094 2.36100006103516 251 143 125
-0.363033562898636 -0.338684886693954 2.35900020599365 243 143 127
-0.356942713260651 -0.338991522789001 2.36100006103516 236 141 122
-0.634312331676483 -0.342660248279572 2.3490002155304 242 140 115
-0.627449870109558 -0.342390656471252 2.34700012207031 254 134 113
-0.620597660541534 -0.342121213674545 2.34500002861023 255 139 118
-0.614803433418274 -0.342435449361801 2.34700012207031 255 141 118
-0.608997762203217 -0.342749863862991 2.3490002155304 255 148 125
-0.602154314517975 -0.342480629682541 2.34700012207031 255 142 117
-0.595067083835602 -0.342065572738647 2.34400010108948 255 141 114
-0.589251279830933 -0.342380255460739 2.34600019454956 255 138 113
-0.583423793315887 -0.342694997787476 2.34800004959106 255 141 118
-0.577339112758636 -0.342863887548447 2.3490002155304 255 139 116
-0.570762097835541 -0.342740923166275 2.34800004959106 255 136 115
-0.564189672470093 -0.342617988586426 2.34700012207031 253 133 112
-0.557621896266937 -0.342495083808899 2.34600019454956 255 140 117
-0.551998615264893 -0.342956125736237 2.3490002155304 255 143 118
-0.545893669128418 -0.343125224113464 2.35000014305115 255 145 118
-0.540241658687592 -0.343586415052414 2.35300016403198 255 147 118
-0.533891916275024 -0.343609541654587 2.35300016403198 255 146 115
-0.527541399002075 -0.343632698059082 2.35300016403198 255 143 114
-0.520968317985535 -0.34350973367691 2.35199999809265 255 146 117
-0.513743460178375 -0.34294855594635 2.34800004959106 255 144 117
-0.507619857788086 -0.343117654323578 2.3490002155304 255 143 116
-0.501703083515167 -0.343432694673538 2.3510000705719 255 143 118
-0.495985448360443 -0.34389391541481 2.35400009155273 255 142 114
-0.489834636449814 -0.344062864780426 2.35500001907349 255 146 117
-0.483266830444336 -0.343939542770386 2.35400009155273 255 151 122
-0.477108657360077 -0.344108372926712 2.35500001907349 255 147 118
-0.470744282007217 -0.344131052494049 2.35500001907349 255 142 115
-0.464181751012802 -0.344007462263107 2.35400009155273 255 140 116
-0.457623571157455 -0.343883723020554 2.35300016403198 255 144 121
-0.451261669397354 -0.343906074762344 2.35300016403198 255 144 120
-0.444898724555969 -0.343928217887878 2.35300016403198 255 146 121
-0.438907563686371 -0.344242662191391 2.35500001907349 255 146 121
-0.432537198066711 -0.344264537096024 2.35500001907349 255 143 116
-0.426346927881241 -0.344432592391968 2.35600018501282 255 141 114
-0.419793635606766 -0.344307988882065 2.35500001907349 255 140 111
-0.413244783878326 -0.344183295965195 2.35400009155273 255 142 115
-0.406873196363449 -0.344204604625702 2.35400009155273 255 143 116
-0.400500625371933 -0.344225704669952 2.35400009155273 255 142 113
-0.394127070903778 -0.344246685504913 2.35400009155273 252 139 111
-0.387917190790176 -0.344413608312607 2.35500001907349 255 139 114
-0.381538927555084 -0.344434201717377 2.35500001907349 255 140 115
-0.375000417232513 -0.344308346509933 2.35400009155273 255 142 119
-0.368309646844864 -0.344035923480988 2.35199999809265 252 135 115
-0.361321061849594 -0.343470752239227 2.34800004959106 255 141 121
-0.35480672121048 -0.343344122171402 2.34700012207031 252 139 119
-0.348296791315079 -0.34321728348732 2.34600019454956 255 148 130
-0.341791301965714 -0.343090116977692 2.34500002861023 255 147 129
-0.335433393716812 -0.34310907125473 2.34500002861023 232 145 125
-0.638708293437958 -0.347954154014587 2.34200000762939 233 134 113
-0.631589829921722 -0.347530633211136 2.33900022506714 255 143 123
-0.624754190444946 -0.347255825996399 2.33700013160706 255 139 116
-0.618193447589874 -0.347129702568054 2.3360002040863 255 138 113
-0.613209128379822 -0.347895234823227 2.34100008010864 253 133 110
-0.607678771018982 -0.348363846540451 2.34400010108948 253 134 109
-0.600592195987701 -0.347940802574158 2.34100008010864 255 141 114
-0.593774974346161 -0.347666472196579 2.33900022506714 255 139 114
-0.587218940258026 -0.347540736198425 2.33800005912781 255 138 113
-0.58141303062439 -0.347861081361771 2.34000015258789 255 142 117
-0.575104176998138 -0.347884207963943 2.34000015258789 255 137 114
-0.568551301956177 -0.347758680582047 2.33900022506714 255 136 115
-0.562724232673645 -0.348079234361649 2.34100008010864 255 135 114
-0.556172609329224 -0.347953766584396 2.34000015258789 255 136 113
-0.550800442695618 -0.348571836948395 2.34400010108948 255 136 113
-0.544708967208862 -0.348743885755539 2.34500002861023 255 146 121
-0.5390704870224 -0.349213391542435 2.34800004959106 255 141 112
-0.532280504703522 -0.348939269781113 2.34600019454956 255 145 116
-0.525724589824677 -0.34881380200386 2.34500002861023 255 142 113
-0.519616186618805 -0.348985850811005 2.34600019454956 255 143 116
-0.51284521818161 -0.348711639642715 2.34400010108948 255 144 117
-0.506516218185425 -0.348734825849533 2.34400010108948 255 145 118
-0.499972969293594 -0.348609209060669 2.34300017356873 255 139 112
-0.494487583637238 -0.349227458238602 2.34700012207031 255 143 114
-0.488355726003647 -0.349399328231812 2.34800004959106 255 141 112
-0.482422828674316 -0.349719971418381 2.35000014305115 255 146 117
-0.475667774677277 -0.349445253610611 2.34800004959106 255 145 116
-0.468922644853592 -0.349170446395874 2.34600019454956 255 143 118
-0.462187319993973 -0.348895460367203 2.34400010108948 255 137 114
-0.455461829900742 -0.34862032532692 2.34200000762939 255 139 116
-0.449705064296722 -0.349089413881302 2.34500002861023 255 141 118
-0.443363904953003 -0.349111765623093 2.34500002861023 255 141 118
-0.437767326831818 -0.34972956776619 2.3490002155304 255 142 117
-0.431229621171951 -0.349602788686752 2.34800004959106 255 140 113
-0.425058424472809 -0.349773705005646 2.3490002155304 252 133 106
-0.418702483177185 -0.349795550107956 2.3490002155304 255 140 115
-0.411994457244873 -0.349519342184067 2.34700012207031 255 135 112
-0.405469179153442 -0.349391937255859 2.34600019454956 255 143 118
-0.398948311805725 -0.349264293909073 2.34500002861023 255 138 115
-0.392934143543243 -0.349583327770233 2.34700012207031 255 139 118
-0.386743426322937 -0.349753201007843 2.34800004959106 255 137 116
-0.380222350358963 -0.349625051021576 2.34700012207031 255 135 112
-0.37354639172554 -0.349347591400146 2.34500002861023 255 138 117
-0.366880267858505 -0.349069982767105 2.34300017356873 255 136 115
-0.360070168972015 -0.348643094301224 2.34000015258789 255 135 114
-0.353880017995834 -0.34881192445755 2.34100008010864 254 131 112
-0.347683519124985 -0.34898054599762 2.34200000762939 255 131 112
-0.341480672359467 -0.349148988723755 2.34300017356873 253 128 109
-0.335271447896957 -0.349317193031311 2.34400010108948 255 136 117
-0.328915536403656 -0.349336087703705 2.34400010108948 254 133 114
-0.322696268558502 -0.349503755569458 2.34500002861023 255 136 117
-0.316470742225647 -0.349671244621277 2.34600019454956 255 141 122
-0.310238838195801 -0.349838465452194 2.34700012207031 255 146 126
-0.304130077362061 -0.350154489278793 2.3490002155304 239 134 113
-0.303079873323441 -0.356433123350143 2.39100003242493 221 137 114
-0.642240047454834 -0.352755665779114 2.33200001716614 255 147 127
-0.635958909988403 -0.35277783870697 2.33200001716614 255 144 123
-0.628867208957672 -0.352346360683441 2.3289999961853 255 141 116
-0.622593104839325 -0.352368801832199 2.3289999961853 255 139 116
-0.61631840467453 -0.352391362190247 2.3289999961853 255 136 112
-0.611090898513794 -0.3530193567276 2.33300018310547 255 132 108
-0.605841159820557 -0.353647500276566 2.33700013160706 255 135 111
-0.59954297542572 -0.353670507669449 2.33700013160706 255 136 112
-0.593244194984436 -0.353693604469299 2.33700013160706 255 133 109
-0.586191236972809 -0.353262692689896 2.33400011062622 255 133 110
-0.579402208328247 -0.352983176708221 2.33200001716614 255 137 114
-0.573114693164825 -0.353006392717361 2.33200001716614 255 137 114
-0.567312717437744 -0.35333251953125 2.33400011062622 255 141 120
-0.561499118804932 -0.353658705949783 2.3360002040863 255 135 114
-0.555198550224304 -0.35368213057518 2.3360002040863 255 137 114
-0.548662185668945 -0.353554099798203 2.33500003814697 255 137 114
-0.542362809181213 -0.353577584028244 2.33500003814697 255 137 110
-0.536521673202515 -0.353903979063034 2.33700013160706 255 140 113
-0.530215084552765 -0.353927403688431 2.33700013160706 255 139 110
-0.523683607578278 -0.35379946231842 2.3360002040863 255 140 113
-0.517378032207489 -0.35382291674614 2.3360002040863 255 138 109
-0.511290371417999 -0.353997796773911 2.33700013160706 255 141 114
-0.504980385303497 -0.354021191596985 2.33700013160706 255 142 115
-0.498456060886383 -0.353893041610718 2.3360002040863 255 139 108
-0.492357581853867 -0.354067772626877 2.33700013160706 255 142 113
-0.486252784729004 -0.354242503643036 2.33800005912781 255 141 114
-0.480346947908401 -0.354568749666214 2.34000015258789 255 143 114
-0.473821610212326 -0.354440301656723 2.33900022506714 255 145 116
-0.467500627040863 -0.354463309049606 2.33900022506714 255 140 115
-0.460981518030167 -0.354334622621536 2.33800005912781 255 139 116
-0.454077929258347 -0.353902757167816 2.33500003814697 255 141 118
-0.447956651449203 -0.354076951742172 2.3360002040863 255 138 115
-0.441640019416809 -0.35409951210022 2.3360002040863 255 143 120
-0.43625408411026 -0.354879885911942 2.34100008010864 255 137 112
-0.429738253355026 -0.354750543832779 2.34000015258789 255 138 113
-0.423407852649689 -0.35477277636528 2.34000015258789 255 141 116
-0.41707643866539 -0.35479474067688 2.34000015258789 255 139 116
-0.410744041204453 -0.35481658577919 2.34000015258789 255 135 112
-0.404237896203995 -0.35468664765358 2.33900022506714 255 136 113
-0.397906303405762 -0.354708135128021 2.33900022506714 255 136 115
-0.391908496618271 -0.355032742023468 2.34100008010864 255 139 118
-0.3857342004776 -0.355205535888672 2.34200000762939 255 136 116
-0.379553586244583 -0.355378210544586 2.34300017356873 255 132 109
-0.372729390859604 -0.354943871498108 2.34000015258789 255 135 115
-0.366233646869659 -0.35481271147728 2.33900022506714 255 136 116
-0.359588503837585 -0.354529619216919 2.33700013160706 255 138 115
-0.353255569934845 -0.354549646377563 2.33700013160706 255 131 111
-0.347367018461227 -0.355024665594101 2.34000015258789 255 131 112
-0.341169834136963 -0.355195969343185 2.34100008010864 255 130 111
-0.334823191165924 -0.35521537065506 2.34100008010864 255 132 113
-0.328335404396057 -0.355082750320435 2.34000015258789 255 131 112
-0.321852058172226 -0.354949831962585 2.33900022506714 255 132 113
-0.315508097410202 -0.354968398809433 2.33900022506714 255 128 108
-0.309031099081039 -0.354834944009781 2.33800005912781 250 125 105
-0.30268806219101 -0.354852974414825 2.33800005912781 251 126 106
-0.29634416103363 -0.354870706796646 2.33800005912781 255 144 123
-0.29024749994278 -0.355191737413406 2.34000015258789 245 140 119
-0.28486704826355 -0.3564233481884 2.34800004959106 226 132 110
-0.647386372089386 -0.358426332473755 2.32800006866455 239 147 130
-0.640565574169159 -0.358140558004379 2.32600021362305 255 147 115
-0.633754909038544 -0.357854902744293 2.32400012016296 255 141 116
-0.626684725284576 -0.357415378093719 2.32100009918213 255 136 113
-0.620966613292694 -0.357745975255966 2.32300019264221 255 134 111
-0.615237176418304 -0.358076691627502 2.32500004768372 255 136 113
-0.610282182693481 -0.358869671821594 2.33000016212463 255 133 110
-0.604521930217743 -0.359200745820999 2.33200001716614 255 136 113
-0.597724139690399 -0.35891580581665 2.33000016212463 255 132 108
-0.590936422348022 -0.358630955219269 2.32800006866455 255 136 113
-0.583656549453735 -0.358038038015366 2.32400012016296 255 137 114
-0.577639758586884 -0.358215391635895 2.32500004768372 255 136 113
-0.571862637996674 -0.35854697227478 2.3270001411438 255 135 112
-0.566560089588165 -0.359186828136444 2.33100008964539 255 136 113
-0.560273766517639 -0.35921037197113 2.33100008964539 255 136 113
-0.553511381149292 -0.358925759792328 2.3289999961853 255 135 112
-0.546524047851563 -0.358487039804459 2.32600021362305 255 133 110
-0.540248870849609 -0.35851064324379 2.32600021362305 255 139 115
-0.534202396869659 -0.358688414096832 2.3270001411438 255 135 108
-0.527922868728638 -0.358711987733841 2.3270001411438 255 138 111
-0.521642446517944 -0.358735591173172 2.3270001411438 255 136 109
-0.515804171562195 -0.359067529439926 2.3289999961853 255 138 111
-0.510172963142395 -0.359553635120392 2.33200001716614 255 142 117
-0.503660380840302 -0.359423011541367 2.33100008964539 255 144 117
-0.497152358293533 -0.359292358160019 2.33000016212463 255 138 109
-0.491070181131363 -0.359470009803772 2.33100008964539 255 137 108
-0.484773695468903 -0.359493434429169 2.33100008964539 255 140 111
-0.478476285934448 -0.359516769647598 2.33100008964539 255 139 108
-0.471975356340408 -0.359385788440704 2.33000016212463 255 139 110
-0.465678781270981 -0.3594089448452 2.33000016212463 255 141 116
-0.459775596857071 -0.359740495681763 2.33200001716614 250 131 106
-0.452888339757919 -0.359300643205643 2.3289999961853 254 135 110
-0.446783453226089 -0.359477788209915 2.33000016212463 255 138 115
-0.440104991197586 -0.35919189453125 2.32800006866455 255 142 119
-0.434368163347244 -0.359677374362946 2.33100008964539 255 142 117
-0.428246766328812 -0.359854161739349 2.33200001716614 255 137 112
-0.422119110822678 -0.360030829906464 2.33300018310547 255 140 117
-0.415806800127029 -0.36005300283432 2.33300018310547 255 140 117
-0.409493505954742 -0.360075026750565 2.33300018310547 255 138 115
-0.403179317712784 -0.360096901655197 2.33300018310547 255 137 113
-0.396694004535675 -0.359964191913605 2.33200001716614 255 138 118
-0.390547960996628 -0.360140055418015 2.33300018310547 255 137 104
-0.384066134691238 -0.360006988048553 2.33200001716614 255 133 113
-0.378236681222916 -0.360491216182709 2.33500003814697 252 127 107
-0.371753007173538 -0.360357761383057 2.33400011062622 255 134 115
-0.365430265665054 -0.360378444194794 2.33400011062622 255 132 109
-0.358952820301056 -0.360244512557983 2.33300018310547 255 131 107
-0.352479755878448 -0.360110312700272 2.33200001716614 255 138 115
-0.34675344824791 -0.360748052597046 2.3360002040863 255 132 112
-0.340567290782928 -0.360922306776047 2.33700013160706 255 133 113
-0.33451783657074 -0.361250728368759 2.33900022506714 255 135 116
-0.327755093574524 -0.360806673765183 2.3360002040863 255 130 111
-0.321282804012299 -0.36067122220993 2.33500003814697 255 132 113
-0.314815133810043 -0.360535562038422 2.33400011062622 255 127 107
-0.308484137058258 -0.360554069280624 2.33400011062622 255 128 106
-0.302022814750671 -0.360417783260345 2.33300018310547 255 126 104
-0.295819520950317 -0.360590159893036 2.33400011062622 255 133 110
-0.289485901594162 -0.360607832670212 2.33400011062622 253 131 108
-0.283272743225098 -0.360779672861099 2.33500003814697 250 135 114
-0.276816099882126 -0.360642194747925 2.33400011062622 255 142 122
-0.270364105701447 -0.360504448413849 2.33300018310547 249 146 125
-0.650264799594879 -0.36282154917717 2.31600022315979 242 132 110
-0.644861459732056 -0.363313525915146 2.31900000572205 253 137 112
-0.638340175151825 -0.363179117441177 2.31800007820129 255 136 112
-0.631823658943176 -0.363044857978821 2.31700015068054 254 132 108
-0.624772191047668 -0.362597316503525 2.31400012969971 255 140 116
-0.619072794914246 -0.362933427095413 2.31600022315979 255 137 114
-0.613097429275513 -0.363112926483154 2.31700015068054 255 139 116
-0.607901871204376 -0.363762825727463 2.32100009918213 255 132 108
-0.601906478404999 -0.363942682743073 2.32200002670288 255 134 107
-0.596161663532257 -0.364279419183731 2.32400012016296 255 134 107
-0.58939003944397 -0.363989293575287 2.32200002670288 255 132 108
-0.582879722118378 -0.363855928182602 2.32100009918213 255 138 114
-0.576622545719147 -0.363879501819611 2.32100009918213 255 134 110
-0.570118844509125 -0.363746255636215 2.32000017166138 255 136 113
-0.564105927944183 -0.363926649093628 2.32100009918213 255 141 118
-0.557606220245361 -0.363793551921844 2.32000017166138 255 135 111
-0.551586389541626 -0.363974094390869 2.32100009918213 255 135 111
-0.544855654239655 -0.363684177398682 2.31900000572205 255 133 109
-0.538831651210785 -0.363864779472351 2.32000017166138 255 135 111
-0.533030867576599 -0.364202231168747 2.32200002670288 255 138 114
-0.526537954807281 -0.364069163799286 2.32100009918213 255 133 109
-0.520049691200256 -0.363936096429825 2.32000017166138 255 135 111
-0.514008760452271 -0.364116668701172 2.32100009918213 255 137 113
-0.50861793756485 -0.364767998456955 2.32500004768372 255 138 114
-0.502340376377106 -0.364791691303253 2.32500004768372 255 141 114
-0.49606192111969 -0.364815384149551 2.32500004768372 255 134 106
-0.489993333816528 -0.364995956420898 2.32600021362305 255 138 110
-0.483710408210754 -0.365019559860229 2.32600021362305 255 137 109
-0.476605504751205 -0.364415258169174 2.32200002670288 255 139 108
-0.470534205436707 -0.364595681428909 2.32300019264221 255 140 111
-0.46425661444664 -0.364618986845016 2.32300019264221 255 142 115
-0.458963871002197 -0.365427047014236 2.32800006866455 255 139 110
-0.451893150806427 -0.364822298288345 2.32400012016296 255 139 112
-0.445610105991364 -0.364845305681229 2.32400012016296 255 138 114
-0.438380897045136 -0.36408320069313 2.31900000572205 255 139 112
-0.432482123374939 -0.364419937133789 2.32100009918213 255 141 114
-0.426571637392044 -0.36475658416748 2.32300019264221 254 132 108
-0.420830249786377 -0.365250140428543 2.32600021362305 255 134 110
-0.414715260267258 -0.365429550409317 2.3270001411438 255 139 115
-0.408418357372284 -0.365451693534851 2.3270001411438 255 135 111
-0.401947736740112 -0.365316689014435 2.32600021362305 255 139 115
-0.395481586456299 -0.365181446075439 2.32500004768372 255 139 106
-0.389354705810547 -0.365360200405121 2.32600021362305 255 138 101
-0.382727324962616 -0.365067452192307 2.32400012016296 255 136 116
-0.376757770776749 -0.365402936935425 2.32600021362305 255 129 109
-0.370457947254181 -0.365424007177353 2.32600021362305 255 132 112
-0.364470213651657 -0.365759044885635 2.32800006866455 255 136 113
-0.358316898345947 -0.365936815738678 2.3289999961853 255 136 112
-0.351854979991913 -0.365800112485886 2.32800006866455 255 134 110
-0.345842808485031 -0.36613455414772 2.33000016212463 255 133 110
-0.339381724596024 -0.365997433662415 2.3289999961853 255 135 112
-0.333211183547974 -0.366174280643463 2.33000016212463 255 129 109
-0.326753675937653 -0.366036534309387 2.3289999961853 255 128 108
-0.320025593042374 -0.365584284067154 2.32600021362305 255 131 111
-0.31371745467186 -0.365603178739548 2.32600021362305 255 134 112
-0.307540595531464 -0.36577895283699 2.3270001411438 255 126 104
-0.301357358694077 -0.365954488515854 2.32800006866455 255 130 108
-0.294914484024048 -0.365815401077271 2.3270001411438 255 133 113
-0.288476169109344 -0.365675956010818 2.32600021362305 252 123 103
-0.282163709402084 -0.365693420171738 2.32600021362305 255 129 111
-0.275494605302811 -0.365238904953003 2.32300019264221 255 129 110
-0.269188642501831 -0.365255743265152 2.32300019264221 255 132 112
-0.262655526399612 -0.364957809448242 2.32100009918213 251 124 104
-0.256574302911758 -0.365288466215134 2.32300019264221 255 133 113
-0.250050485134125 -0.364989817142487 2.32100009918213 255 140 120
-0.244166851043701 -0.365634441375732 2.32500004768372 255 141 121
-0.238465368747711 -0.366593301296234 2.33100008964539 241 142 123
-0.648277342319489 -0.367969989776611 2.30900001525879 255 139 110
-0.642892837524414 -0.368470251560211 2.31200003623962 254 133 106
-0.636665523052216 -0.368492603302002 2.31200003623962 255 137 113
-0.630710422992706 -0.368674516677856 2.31300020217896 255 132 108
-0.623669505119324 -0.368218988180161 2.31000018119812 255 133 110
-0.61744612455368 -0.368241786956787 2.31000018119812 255 132 109
-0.611751437187195 -0.368583559989929 2.31200003623962 255 137 114
-0.60630738735199 -0.369084984064102 2.31500005722046 255 136 112
-0.600068807601929 -0.369108229875565 2.31500005722046 255 132 105
-0.593316674232483 -0.368812680244446 2.31300020217896 255 135 107
-0.586574614048004 -0.368517220020294 2.31100010871887 255 138 111
-0.580847144126892 -0.368859678506851 2.31300020217896 255 136 108
-0.574611485004425 -0.368883311748505 2.31300020217896 255 134 107
-0.568375110626221 -0.368907004594803 2.31300020217896 255 136 112
-0.562137961387634 -0.368930757045746 2.31300020217896 255 139 115
-0.555900096893311 -0.368954509496689 2.31300020217896 255 136 112
-0.549899160861969 -0.369137912988663 2.31400012969971 255 137 113
-0.543657064437866 -0.369161754846573 2.31400012969971 253 129 105
-0.537414252758026 -0.369185715913773 2.31400012969971 255 137 113
-0.531170547008514 -0.369209587574005 2.31400012969971 255 134 110
-0.524926126003265 -0.369233548641205 2.31400012969971 255 131 108
-0.519129157066345 -0.36957660317421 2.31600022315979 255 133 109
-0.513099074363709 -0.369760096073151 2.31700015068054 254 130 106
-0.50706285238266 -0.369943588972092 2.31800007820129 255 132 108
-0.500588178634644 -0.369807869195938 2.31700015068054 255 136 112
-0.494544714689255 -0.369991332292557 2.31800007820129 255 135 108
-0.488495022058487 -0.370174735784531 2.31900000572205 255 138 111
-0.482231110334396 -0.370198488235474 2.31900000572205 255 138 110
-0.475350588560104 -0.369743257761002 2.31600022315979 255 139 111
-0.469497948884964 -0.370086073875427 2.31800007820129 255 139 112
-0.463234007358551 -0.370109558105469 2.31800007820129 255 141 114
-0.457560569047928 -0.370612025260925 2.32100009918213 254 133 105
-0.450703352689743 -0.370156317949295 2.31800007820129 255 141 114
-0.444053173065186 -0.369860082864761 2.31600022315979 255 141 114
-0.437223821878433 -0.369403958320618 2.31300020217896 255 134 103
-0.430968821048737 -0.369426906108856 2.31300020217896 255 136 108
-0.425263583660126 -0.369928777217865 2.31600022315979 255 136 109
-0.419360399246216 -0.370270907878876 2.31800007820129 255 137 110
-0.413267195224762 -0.370453119277954 2.31900000572205 252 129 102
-0.406816631555557 -0.370315700769424 2.31800007820129 255 134 110
-0.400370538234711 -0.370178133249283 2.31700015068054 255 139 112
-0.394099026918411 -0.370200097560883 2.31700015068054 255 135 111
-0.387993901968002 -0.370381653308868 2.31800007820129 255 133 109
-0.381223767995834 -0.369923919439316 2.31500005722046 255 136 113
-0.375116884708405 -0.370105147361755 2.31600022315979 255 134 111
-0.368684977293015 -0.369966447353363 2.31500005722046 255 128 108
-0.362570732831955 -0.370147287845612 2.31600022315979 255 134 111
-0.356911659240723 -0.370807319879532 2.32000017166138 255 134 111
-0.350927740335464 -0.37114754319191 2.32200002670288 255 135 112
-0.344932109117508 -0.371487617492676 2.32400012016296 255 131 108
-0.338341772556305 -0.371188014745712 2.32200002670288 255 129 106
-0.332047462463379 -0.371207863092422 2.32200002670288 254 127 107
-0.325471699237823 -0.370907753705978 2.32000017166138 254 125 105
-0.318905770778656 -0.370607256889343 2.31800007820129 255 134 114
-0.312619596719742 -0.370626270771027 2.31800007820129 255 133 111
-0.30646476149559 -0.370804965496063 2.31900000572205 255 127 105
-0.300303548574448 -0.370983362197876 2.32000017166138 255 127 105
-0.294009357690811 -0.371001541614532 2.32000017166138 255 125 105
-0.28759029507637 -0.370859533548355 2.31900000572205 255 134 114
-0.281175851821899 -0.370717227458954 2.31800007820129 255 131 113
-0.274884581565857 -0.370734512805939 2.31800007820129 255 128 110
-0.268708378076553 -0.370911478996277 2.31900000572205 255 126 106
-0.262412756681442 -0.370928138494492 2.31900000572205 255 124 102
-0.256226867437363 -0.37110447883606 2.32000017166138 255 124 102
-0.249819219112396 -0.370960503816605 2.31900000572205 254 121 99
-0.243836343288422 -0.371456116437912 2.32200002670288 255 125 103
-0.237734109163284 -0.371791452169418 2.32400012016296 255 131 111
-0.231421127915382 -0.371806561946869 2.32400012016296 250 130 111
-0.22510738670826 -0.371821194887161 2.32400012016296 248 137 119
-0.21869882941246 -0.371675580739975 2.32300019264221 229 141 124
-0.658975183963776 -0.373198390007019 2.3030002117157 233 126 105
-0.652773201465607 -0.373220205307007 2.3030002117157 255 135 114
-0.646009266376495 -0.37291806936264 2.30100011825562 255 133 106
-0.640645980834961 -0.373426496982574 2.30400013923645 255 133 105
-0.634440064430237 -0.37344890832901 2.30400013923645 255 134 110
-0.629051744937897 -0.37395778298378 2.30700016021729 255 129 105
-0.621756911277771 -0.373332113027573 2.3030002117157 255 131 104
-0.61528491973877 -0.373192876577377 2.30200004577637 253 128 101
-0.609611630439758 -0.373540192842484 2.30400013923645 255 132 105
-0.60392689704895 -0.373887628316879 2.30599999427795 255 134 106
-0.597194194793701 -0.373586684465408 2.30400013923645 255 133 102
-0.590984642505646 -0.373610138893127 2.30400013923645 255 138 107
-0.585028111934662 -0.373795807361603 2.3050000667572 255 137 109
-0.579567909240723 -0.374305963516235 2.30800008773804 255 136 105
-0.572848796844482 -0.374005347490311 2.30599999427795 255 132 104
-0.566631197929382 -0.374029159545898 2.30599999427795 255 138 114
-0.5604128241539 -0.374053001403809 2.30599999427795 255 136 112
-0.554434180259705 -0.374239176511765 2.30700016021729 255 134 110
-0.548449397087097 -0.374425381422043 2.30800008773804 255 131 108
-0.542223453521729 -0.374449372291565 2.30800008773804 255 135 112
-0.535764575004578 -0.374311208724976 2.30700016021729 255 139 115
-0.529539823532104 -0.374335259199142 2.30700016021729 255 140 116
-0.52354109287262 -0.37452158331871 2.30800008773804 255 134 111
-0.517984449863434 -0.375032484531403 2.31100010871887 255 132 109
-0.511967837810516 -0.37521880865097 2.31200003623962 255 136 113
-0.505945086479187 -0.375405222177505 2.31300020217896 255 137 114
-0.499700129032135 -0.375429272651672 2.31300020217896 255 134 110
-0.494094163179398 -0.375940263271332 2.31600022315979 255 132 108
-0.487628608942032 -0.375801891088486 2.31500005722046 255 132 105
-0.481167584657669 -0.375663429498672 2.31400012969971 255 138 110
-0.474300622940063 -0.375200212001801 2.31100010871887 255 134 106
-0.468056559562683 -0.375223934650421 2.31100010871887 255 134 107
-0.461611807346344 -0.375085175037384 2.31000018119812 255 133 105
-0.455368638038635 -0.37510871887207 2.31000018119812 255 139 108
-0.448930114507675 -0.374969750642776 2.30900001525879 255 134 106
-0.44268786907196 -0.374993085861206 2.30900001525879 255 139 111
-0.436444699764252 -0.375016272068024 2.30900001525879 255 133 102
-0.430200546979904 -0.375039279460907 2.30900001525879 255 137 109
-0.424506306648254 -0.375549554824829 2.31200003623962 255 136 109
-0.418252259492874 -0.375572353601456 2.31200003623962 255 134 107
-0.411997258663177 -0.375594973564148 2.31200003623962 255 133 109
-0.405741304159164 -0.375617474317551 2.31200003623962 254 128 105
-0.399138897657394 -0.375314921140671 2.31000018119812 255 130 106
-0.392886459827423 -0.37533700466156 2.31000018119812 255 134 110
-0.386465787887573 -0.37519645690918 2.30900001525879 255 131 107
-0.380378901958466 -0.37538069486618 2.31000018119812 255 135 112
-0.374123692512512 -0.375402241945267 2.31000018119812 251 125 102
-0.367867588996887 -0.375423580408096 2.31000018119812 255 132 112
-0.361767083406448 -0.375607252120972 2.31100010871887 255 134 114
-0.356121748685837 -0.376278281211853 2.31500005722046 255 131 111
-0.350151598453522 -0.376624137163162 2.31700015068054 255 133 110
-0.343872845172882 -0.376644611358643 2.31700015068054 255 138 115
-0.337156116962433 -0.376177161931992 2.31400012969971 255 131 107
-0.330740720033646 -0.376034587621689 2.31300020217896 255 131 107
-0.324329853057861 -0.375891715288162 2.31200003623962 255 134 110
-0.317648380994797 -0.375423401594162 2.30900001525879 255 129 107
-0.311656653881073 -0.375767737627029 2.31100010871887 255 128 108
-0.305520981550217 -0.375949203968048 2.31200003623962 255 129 109
-0.299249589443207 -0.375967860221863 2.31200003623962 255 126 106
-0.29259729385376 -0.375498354434967 2.30900001525879 255 121 102
-0.286580413579941 -0.375841587781906 2.31100010871887 255 127 108
-0.280551850795746 -0.376184612512589 2.31300020217896 255 122 104
-0.274393022060394 -0.376364678144455 2.31400012969971 255 121 103
-0.268343836069107 -0.37670710682869 2.31600022315979 255 124 106
-0.262056708335876 -0.376723945140839 2.31600022315979 255 126 107
-0.255768805742264 -0.376740485429764 2.31600022315979 255 122 100
-0.249264672398567 -0.376431256532669 2.31400012969971 255 122 96
-0.242980673909187 -0.376447081565857 2.31400012969971 255 125 99
-0.236900493502617 -0.376787960529327 2.31600022315979 255 129 103
-0.230609595775604 -0.376803159713745 2.31600022315979 255 130 106
-0.22451163828373 -0.377143293619156 2.31800007820129 255 128 108
-0.218213886022568 -0.377157777547836 2.31800007820129 255 123 105
-0.212098315358162 -0.377497345209122 2.32000017166138 253 126 107
-0.205616310238838 -0.377185612916946 2.31800007820129 255 135 116
-0.663999974727631 -0.378745377063751 2.29900002479553 228 127 108
-0.6569504737854 -0.378272771835327 2.2960000038147 245 124 105
-0.650483667850494 -0.378129869699478 2.29500007629395 255 133 109
-0.643741190433502 -0.377822399139404 2.29300022125244 255 133 106
-0.638399183750153 -0.37833896279335 2.2960000038147 255 132 105
-0.63249009847641 -0.378526270389557 2.29700016975403 254 130 106
-0.627392947673798 -0.379208087921143 2.30100011825562 255 135 111
-0.620654046535492 -0.378901302814484 2.29900002479553 255 133 106
-0.61365818977356 -0.378429859876633 2.2960000038147 254 129 102
-0.60773640871048 -0.378617823123932 2.29700016975403 255 136 109
-0.602070450782776 -0.378970742225647 2.29900002479553 255 134 106
-0.595097243785858 -0.378499627113342 2.2960000038147 255 133 102
-0.58839613199234 -0.378193438053131 2.29400014877319 255 134 106
-0.582466542720795 -0.378381907939911 2.29500007629395 255 134 106
-0.57703310251236 -0.3789002597332 2.29800009727478 255 133 105
-0.571086049079895 -0.379088938236237 2.29900002479553 255 130 102
-0.565133035182953 -0.379277765750885 2.30000019073486 255 134 107
-0.559659898281097 -0.379796534776688 2.3030002117157 255 134 110
-0.553689181804657 -0.379985481500626 2.30400013923645 255 133 109
-0.546999573707581 -0.37967973947525 2.30200004577637 254 128 105
-0.539850175380707 -0.379044145345688 2.29800009727478 254 128 105
-0.533418238162994 -0.378903329372406 2.29700016975403 255 132 105
-0.527449905872345 -0.379092395305634 2.29800009727478 255 136 109
-0.521929204463959 -0.379611521959305 2.30100011825562 255 137 113
-0.516615509986877 -0.380295604467392 2.3050000667572 255 133 106
-0.510393679141998 -0.380319803953171 2.3050000667572 255 132 108
-0.504608631134033 -0.380674064159393 2.30700016021729 255 131 107
-0.498163670301437 -0.380533158779144 2.30599999427795 255 135 111
-0.492576658725739 -0.381052374839783 2.30900001525879 255 135 107
-0.486130177974701 -0.380911469459534 2.30800008773804 255 136 109
-0.479480177164078 -0.380605399608612 2.30599999427795 255 134 106
-0.473045408725739 -0.380464345216751 2.3050000667572 255 134 106
-0.466817647218704 -0.380488187074661 2.3050000667572 255 139 112
-0.460589021444321 -0.380511969327927 2.3050000667572 255 132 105
-0.453965276479721 -0.380205512046814 2.3030002117157 254 131 104
-0.447740197181702 -0.3802290558815 2.3030002117157 255 134 110
-0.441514253616333 -0.380252510309219 2.3030002117157 255 130 106
-0.435665398836136 -0.380606055259705 2.3050000667572 255 135 108
-0.429432272911072 -0.380629301071167 2.3050000667572 255 134 107
-0.423381745815277 -0.380817532539368 2.30599999427795 255 134 110
-0.417144030332565 -0.380840480327606 2.30599999427795 253 125 99
-0.41054904460907 -0.380532950162888 2.30400013923645 255 127 105
-0.40466582775116 -0.380885899066925 2.30599999427795 255 131 109
-0.398079842329025 -0.38057804107666 2.30400013923645 255 129 106
-0.392013967037201 -0.380765467882156 2.3050000667572 255 132 105
-0.385607004165649 -0.380622386932373 2.30400013923645 255 132 105
-0.379533797502518 -0.380809485912323 2.3050000667572 255 137 113
-0.37329238653183 -0.380831211805344 2.3050000667572 255 127 103
-0.36689081788063 -0.380687475204468 2.30400013923645 255 132 110
-0.360650211572647 -0.38070872426033 2.30400013923645 255 130 110
-0.354716390371323 -0.381060242652893 2.30599999427795 254 125 103
-0.3487708568573 -0.381411612033844 2.30800008773804 255 131 109
-0.342516720294952 -0.381432265043259 2.30800008773804 255 133 111
-0.335970371961594 -0.381122082471848 2.30599999427795 251 123 99
-0.329576939344406 -0.380976915359497 2.3050000667572 255 129 105
-0.323188036680222 -0.380831450223923 2.30400013923645 255 131 107
-0.316803634166718 -0.380685716867447 2.3030002117157 255 124 102
-0.310963243246078 -0.381200909614563 2.30599999427795 255 124 104
-0.304841488599777 -0.381385266780853 2.30700016021729 255 123 104
-0.298583954572678 -0.381404042243958 2.30700016021729 255 125 107
-0.292072147130966 -0.381091803312302 2.3050000667572 253 116 98
-0.285942435264587 -0.381275326013565 2.30599999427795 255 121 102
-0.279806464910507 -0.381458580493927 2.30700016021729 255 123 105
-0.273901343345642 -0.381972163915634 2.31000018119812 255 123 105
-0.26786333322525 -0.382320165634155 2.31200003623962 255 123 105
-0.261587381362915 -0.382337093353271 2.31200003623962 255 125 107
-0.254979372024536 -0.381857633590698 2.30900001525879 255 121 99
-0.248602330684662 -0.381708532571793 2.30800008773804 255 122 99
-0.242439940571785 -0.381889849901199 2.30900001525879 255 125 102
-0.236373662948608 -0.382236272096634 2.31100010871887 255 122 96
-0.229897528886795 -0.381920695304871 2.30900001525879 255 124 98
-0.223625287413597 -0.381935656070709 2.30900001525879 255 130 108
-0.217446476221085 -0.382115662097931 2.31000018119812 255 122 100
-0.211261540651321 -0.382295250892639 2.31100010871887 255 126 107
-0.204893112182617 -0.382143706083298 2.31000018119812 254 121 101
-0.198615446686745 -0.382157117128372 2.31000018119812 255 126 106
-0.192503660917282 -0.382501065731049 2.31200003623962 251 128 109
-0.186944231390953 -0.384002834558487 2.32100009918213 255 149 131
-0.27541971206665 -0.606733202934265 3.66700005531311 251 128 109
-0.267259299755096 -0.610888183116913 3.69200015068054 255 149 131
-0.667546033859253 -0.383433192968369 2.29000020027161 223 128 109
-0.661379218101501 -0.383454650640488 2.29000020027161 254 132 111
-0.654925882816315 -0.383308798074722 2.28900003433228 253 129 105
-0.648194253444672 -0.382995754480362 2.28700017929077 255 131 108
-0.641192436218262 -0.382515490055084 2.28400015830994 255 134 111
-0.635596334934235 -0.382872641086578 2.28600001335144 254 128 105
-0.629989266395569 -0.383230149745941 2.28800010681152 253 129 106
-0.624643623828888 -0.383755415678024 2.29100012779236 255 131 108
-0.618201434612274 -0.383610725402832 2.29000020027161 255 134 110
-0.611764311790466 -0.383466243743896 2.28900003433228 255 133 106
-0.606125712394714 -0.383824557065964 2.29100012779236 255 130 103
-0.600213885307312 -0.384015411138535 2.29200005531311 255 131 103
-0.593518674373627 -0.383703827857971 2.29000020027161 255 133 105
-0.587090075016022 -0.383559852838516 2.28900003433228 254 131 103
-0.581173896789551 -0.383751153945923 2.29000020027161 249 124 96
-0.575502693653107 -0.384110122919083 2.29200005531311 255 136 106
-0.569323360919952 -0.384133994579315 2.29200005531311 255 133 105
-0.56338906288147 -0.38432565331459 2.29300022125244 255 133 105
-0.557934701442719 -0.384852558374405 2.2960000038147 255 133 106
-0.551982879638672 -0.385044366121292 2.29700016975403 255 137 110
-0.5453120470047 -0.384733289480209 2.29500007629395 255 130 106
-0.53818154335022 -0.384086966514587 2.29100012779236 253 127 103
-0.532000720500946 -0.384111225605011 2.29100012779236 253 128 101
-0.526278138160706 -0.384470790624619 2.29300022125244 255 133 106
-0.520543992519379 -0.384830415248871 2.29500007629395 255 136 109
-0.515246510505676 -0.385525494813919 2.29900002479553 255 136 109
-0.509262323379517 -0.385717540979385 2.30000019073486 255 135 108
-0.503709375858307 -0.386245042085648 2.3030002117157 255 132 105
-0.497275412082672 -0.386101603507996 2.30200004577637 253 130 103
-0.491059213876724 -0.386125892400742 2.30200004577637 255 134 106
