-0.344038397073746 0.572318315505981 4.08599996566772 237 156 119
1.31781947612762 -0.242065146565437 2.5860002040863 241 103 99
1.32751488685608 -0.242556303739548 2.59100008010864 241 86 84
1.33054757118225 -0.241831377148628 2.58300018310547 252 88 89
1.30108439922333 -0.247223734855652 2.56700015068054 205 104 93
1.31121778488159 -0.247824490070343 2.57300019264221 248 94 90
1.32087802886963 -0.248329862952232 2.57800006866455 249 86 83
1.32696652412415 -0.248162001371384 2.57600021362305 253 88 87
1.28798687458038 -0.252972424030304 2.5550000667572 248 98 94
1.29401099681854 -0.252796977758408 2.5530002117157 243 84 81
1.30155861377716 -0.252919495105743 2.55400013923645 252 88 85
1.31219244003296 -0.253637194633484 2.56100010871887 251 87 84
1.2804753780365 -0.259774893522263 2.55400013923645 220 89 85
1.28901767730713 -0.260102540254593 2.55700016021729 250 91 88
1.29251384735107 -0.259413778781891 2.55000019073486 251 90 87
1.29750609397888 -0.259031116962433 2.5460000038147 251 90 87
1.26645267009735 -0.266654908657074 2.55400013923645 198 98 91
1.27397096157074 -0.266780644655228 2.5550000667572 252 94 78
1.27999639511108 -0.266594052314758 2.5530002117157 247 84 75
1.29004919528961 -0.267243832349777 2.55900001525879 252 92 86
1.29557943344116 -0.266954720020294 2.55600023269653 255 92 89
1.29804086685181 -0.266039788722992 2.54700016975403 250 89 86
1.25600671768188 -0.272806495428085 2.54700016975403 207 100 88
1.26201093196869 -0.272613316774368 2.54500007629395 239 93 86
1.26900684833527 -0.272635281085968 2.54500007629395 249 86 79
1.27600824832916 -0.272658199071884 2.54500007629395 248 84 79
1.28704845905304 -0.273539245128632 2.5530002117157 254 90 87
1.29560434818268 -0.273885667324066 2.55600023269653 250 86 83
1.30061495304108 -0.273482978343964 2.55200004577637 248 85 82
1.31555235385895 -0.272280603647232 2.54000020027161 249 88 86
1.31841719150543 -0.271452814340591 2.53200006484985 247 84 81
1.24168014526367 -0.27804172039032 2.53200006484985 221 112 110
1.24764430522919 -0.277842789888382 2.53000020980835 234 91 88
1.25459444522858 -0.277864366769791 2.53000020980835 248 85 80
1.26204884052277 -0.277996778488159 2.5310001373291 250 86 81
1.27202117443085 -0.278679430484772 2.53700017929077 250 84 81
1.27850306034088 -0.278594166040421 2.53600001335144 248 84 81
1.28802680969238 -0.279169112443924 2.54100012779236 249 84 83
1.2965646982193 -0.279525429010391 2.54400014877319 240 76 75
1.30358827114105 -0.279553174972534 2.54400014877319 245 81 80
1.30598115921021 -0.278592824935913 2.53500008583069 251 87 86
1.31040287017822 -0.278073072433472 2.53000020980835 250 86 85
1.31428253650665 -0.277444303035736 2.52400016784668 252 88 87
1.22841501235962 -0.28342080116272 2.51900005340576 220 97 101
1.24022948741913 -0.284566342830658 2.52900004386902 255 102 102
1.24322748184204 -0.283687502145767 2.52100014686584 254 99 97
1.24717855453491 -0.28303450345993 2.51500010490417 253 92 89
1.25658714771271 -0.283620446920395 2.52000021934509 252 91 89
1.26653027534485 -0.284320026636124 2.52600002288818 250 89 87
1.27147030830383 -0.283895045518875 2.5220000743866 249 85 84
1.27690124511719 -0.283583581447601 2.51900005340576 249 88 85
1.28792810440063 -0.284511595964432 2.52700018882751 247 88 85
1.29490566253662 -0.28454002737999 2.52700018882751 243 82 79
1.29982841014862 -0.284119069576263 2.52300000190735 245 84 81
1.21958911418915 -0.289766550064087 2.51500010490417 227 98 104
1.22550916671753 -0.289556115865707 2.51300001144409 242 90 94
1.23338496685028 -0.289807558059692 2.51500010490417 252 93 91
1.23930430412292 -0.289599031209946 2.51300001144409 251 92 89
1.2427384853363 -0.288815200328827 2.50600004196167 251 92 89
1.25162470340729 -0.289300143718719 2.51000022888184 246 87 85
1.26154124736786 -0.290016651153564 2.51600003242493 255 94 95
1.26443827152252 -0.289120435714722 2.50800013542175 255 94 92
1.26932489871979 -0.288686245679855 2.50400018692017 251 92 89
1.27878212928772 -0.289290726184845 2.5090000629425 255 96 93
1.28929805755615 -0.290127009153366 2.51600003242493 255 99 96
1.29007017612457 -0.288773447275162 2.50400018692017 251 92 89
1.21705734729767 -0.297623664140701 2.52400016784668 226 80 83
1.21815419197083 -0.296228349208832 2.51200008392334 253 92 97
1.22309172153473 -0.295777291059494 2.50800013542175 255 93 94
1.22997391223907 -0.295798897743225 2.50800013542175 252 89 86
1.23538172245026 -0.295467644929886 2.50500011444092 255 95 92
1.2422661781311 -0.295491278171539 2.50500011444092 250 91 88
1.2481586933136 -0.295279920101166 2.50300002098084 244 85 82
1.25605165958405 -0.295541554689407 2.50500011444092 252 93 90
1.25992739200592 -0.294860303401947 2.49900007247925 246 87 84
1.26479029655457 -0.294416010379791 2.49500012397766 250 93 90
1.28010416030884 -0.294828712940216 2.4980001449585 255 97 94
1.28443396091461 -0.294269502162933 2.49300003051758 247 88 85
1.20680844783783 -0.303599536418915 2.51700019836426 247 95 103
1.20695066452026 -0.301930099725723 2.50300002098084 252 95 102
1.21090066432953 -0.301226615905762 2.49700021743774 249 87 88
1.21969938278198 -0.301730424165726 2.50100016593933 253 90 87
1.22362077236176 -0.301028788089752 2.49500012397766 253 92 89
1.2285008430481 -0.300569385290146 2.49100017547607 248 88 82
1.2348518371582 -0.300472915172577 2.49000000953674 254 94 88
1.24369621276855 -0.300980925559998 2.49400019645691 255 94 91
1.2495596408844 -0.30076590180397 2.49200010299683 247 86 84
1.25340092182159 -0.300069093704224 2.48600006103516 249 88 86
1.261270403862 -0.300338923931122 2.48800015449524 248 87 85
1.2706857919693 -0.300972133874893 2.49300003051758 247 86 84
1.27859771251678 -0.301244348287582 2.49500012397766 244 83 81
1.2829202413559 -0.300672471523285 2.49000000953674 242 81 78
1.28618550300598 -0.299860090017319 2.48300004005432 243 82 79
1.19494938850403 -0.310875952243805 2.52100014686584 236 96 105
1.19612419605255 -0.309414207935333 2.5090000629425 245 90 98
1.19627928733826 -0.307706654071808 2.49500012397766 255 91 92
1.19780886173248 -0.306369870901108 2.48400020599365 254 93 91
1.20461750030518 -0.306390702724457 2.48400020599365 255 94 91
1.21533226966858 -0.307399332523346 2.49200010299683 254 93 90
1.22119164466858 -0.307175487279892 2.49000000953674 246 87 84
1.22260677814484 -0.305842369794846 2.47900009155273 245 86 83
1.23041367530823 -0.306114017963409 2.48100018501282 255 96 93
1.23823690414429 -0.306386739015579 2.48300004005432 251 90 87
1.24557542800903 -0.306537210941315 2.48400020599365 248 84 83
1.2498996257782 -0.305948287248611 2.47900009155273 247 83 82
1.25623035430908 -0.305854082107544 2.47800016403198 249 84 83
1.26459980010986 -0.306254744529724 2.48100018501282 246 82 81
1.26838004589081 -0.305545538663864 2.47500014305115 247 84 81
1.27831590175629 -0.306318879127502 2.48100018501282 245 82 79
1.28259348869324 -0.305735349655151 2.4760000705719 233 73 67
1.28789114952087 -0.305399805307388 2.47300004959106 233 75 69
1.29213190078735 -0.304818391799927 2.46800017356873 239 81 75
1.30003583431244 -0.305102705955505 2.47000002861023 237 79 73
1.18006348609924 -0.315546184778214 2.50400018692017 246 99 106
1.18406522274017 -0.314807772636414 2.4980001449585 249 94 101
1.18660843372345 -0.313692092895508 2.48900008201599 252 88 89
1.19006586074829 -0.312829315662384 2.48200011253357 254 89 88
1.1920428276062 -0.311589330434799 2.47200012207031 255 101 98
1.20124435424805 -0.312241047620773 2.47700023651123 252 93 90
1.21340429782867 -0.313650220632553 2.48800015449524 252 93 90
1.21778237819672 -0.31304344534874 2.48300004005432 248 92 86
1.22016561031342 -0.311933368444443 2.4740002155304 255 98 95
1.22498393058777 -0.31145453453064 2.47000002861023 253 92 89
1.235271692276 -0.3123639523983 2.47700023651123 247 86 83
1.24159169197083 -0.312265604734421 2.4760000705719 249 86 83
1.24690353870392 -0.311916172504425 2.47300004959106 255 91 88
1.25169777870178 -0.311441659927368 2.46900010108948 243 79 76
1.2595340013504 -0.311725109815598 2.47100019454956 243 80 77
1.26482510566711 -0.31137889623642 2.46800017356873 240 77 72
1.27422749996185 -0.312043249607086 2.47300004959106 244 84 78
1.28366422653198 -0.31270894408226 2.47800016403198 238 80 73
1.28792703151703 -0.312113881111145 2.47300004959106 240 82 75
1.2916454076767 -0.311393707990646 2.46700000762939 235 79 73
1.29481065273285 -0.310548305511475 2.46000003814697 241 85 79
1.16480481624603 -0.319996029138565 2.48600006103516 229 93 102
1.16877031326294 -0.319240868091583 2.48000001907349 242 86 90
1.17412948608398 -0.318872839212418 2.47700023651123 252 93 91
1.17899978160858 -0.318376928567886 2.47300004959106 255 95 93
1.18241429328918 -0.317495733499527 2.46600008010864 252 93 90
1.19061744213104 -0.3179030418396 2.46900010108948 251 93 87
1.19932675361633 -0.318440169095993 2.47300004959106 255 103 97
1.20611190795898 -0.318463295698166 2.47300004959106 254 95 92
1.20995950698853 -0.317714840173721 2.46700000762939 248 92 86
1.2122997045517 -0.316580921411514 2.45800018310547 247 89 83
1.22104299068451 -0.317122370004654 2.46200013160706 255 94 91
1.22981357574463 -0.317664980888367 2.46600008010864 247 86 83
1.24011611938477 -0.318595349788666 2.47300004959106 242 82 76
1.2474377155304 -0.318753987550735 2.4740002155304 249 86 81
1.25071477890015 -0.317882895469666 2.46700000762939 241 79 72
1.25650787353516 -0.317657262086868 2.46500015258789 235 73 66
1.2581958770752 -0.316401600837708 2.45500016212463 239 77 70
1.26859438419342 -0.317338138818741 2.46200013160706 240 80 73
1.27541160583496 -0.317373692989349 2.46200013160706 243 86 76
1.28588104248047 -0.318312913179398 2.46900010108948 242 85 75
1.28487718105316 -0.316417038440704 2.45400023460388 237 81 74
1.15726613998413 -0.32840684056282 2.49900007247925 208 93 101
1.15337359905243 -0.325400024652481 2.4760000705719 253 92 99
1.15498220920563 -0.323971062898636 2.46500015258789 255 92 89
1.15983378887177 -0.323462963104248 2.4610002040863 254 93 91
1.16703808307648 -0.323613047599792 2.46200013160706 254 93 90
1.17282176017761 -0.323369741439819 2.46000003814697 255 98 95
1.17907869815826 -0.32325890660286 2.45900011062622 248 87 84
1.18967485427856 -0.324332296848297 2.46700000762939 249 90 87
1.19740986824036 -0.32461804151535 2.46900010108948 250 94 88
1.20369744300842 -0.324510455131531 2.46800017356873 254 97 94
1.20606088638306 -0.323351889848709 2.45900011062622 244 91 83
1.21232581138611 -0.323246330022812 2.45800018310547 242 89 81
1.22107005119324 -0.323799401521683 2.46200013160706 254 96 90
1.22834575176239 -0.323959141969681 2.46300005912781 250 92 85
1.23362672328949 -0.32359391450882 2.46000003814697 243 84 73
1.23990499973297 -0.323492854833603 2.45900011062622 249 87 78
1.24516987800598 -0.323129802942276 2.45600008964539 245 83 74
1.25042378902435 -0.3227678835392 2.45300006866455 240 80 71
1.25259220600128 -0.321617484092712 2.44400000572205 236 76 67
1.25729334354401 -0.321126133203506 2.44000005722046 243 83 76
1.26664137840271 -0.32182052731514 2.44500017166138 239 82 72
1.27758586406708 -0.322911202907562 2.45300006866455 237 77 68
1.14171648025513 -0.332612484693527 2.48000001907349 221 82 95
1.14292585849762 -0.331018447875977 2.46800017356873 242 83 91
1.14500522613525 -0.32969343662262 2.45800018310547 251 85 89
1.14843988418579 -0.328771680593491 2.45100021362305 244 79 80
1.15419673919678 -0.328521549701691 2.44900012016296 250 85 84
1.16136920452118 -0.328674882650375 2.45000004768372 249 85 84
1.16950500011444 -0.329097509384155 2.45300006866455 251 87 86
1.1771821975708 -0.329387098550797 2.45500016212463 250 89 86
1.1868040561676 -0.330214500427246 2.4610002040863 249 88 85
1.19258368015289 -0.329969584941864 2.45900011062622 253 95 89
1.19591856002808 -0.329054713249207 2.4520001411438 253 97 90
1.20020079612732 -0.328409165143967 2.44700002670288 255 101 94
1.20692706108093 -0.328435808420181 2.44700002670288 255 100 93
1.21564245223999 -0.329000473022461 2.45100021362305 253 95 89
1.22089409828186 -0.328626662492752 2.44800019264221 244 84 77
1.22563326358795 -0.328119724988937 2.44400000572205 242 82 73
1.23237287998199 -0.328150898218155 2.44400000572205 241 79 72
1.23861145973206 -0.328049004077911 2.44300007820129 239 77 70
1.24434065818787 -0.327814012765884 2.44100022315979 238 78 69
1.27345812320709 -0.328498095273972 2.44500017166138 233 75 68
1.27814948558807 -0.328000575304031 2.44100022315979 239 81 74
1.13002836704254 -0.339848518371582 2.48400020599365 253 133 146
1.12856125831604 -0.337399750947952 2.46600008010864 235 85 95
1.13160359859467 -0.336320072412491 2.45800018310547 251 90 88
1.13599538803101 -0.335651755332947 2.45300006866455 251 91 85
1.13989806175232 -0.33484748005867 2.44700002670288 251 86 87
1.14611494541168 -0.334728419780731 2.44600009918213 248 83 84
1.15280187129974 -0.334747165441513 2.44600009918213 247 82 83
1.15996694564819 -0.33490377664566 2.44700002670288 255 91 92
1.16761887073517 -0.335198402404785 2.44900012016296 250 86 87
1.17240917682648 -0.334672778844833 2.44500017166138 248 84 83
1.1805579662323 -0.335106372833252 2.44800019264221 246 83 80
1.18630290031433 -0.334856629371643 2.44600009918213 249 88 85
1.19399297237396 -0.335155606269836 2.44800019264221 255 98 91
1.19826543331146 -0.334497302770615 2.44300007820129 247 90 80
1.20596826076508 -0.334798544645309 2.44500017166138 243 85 78
1.21170318126678 -0.334553182125092 2.44300007820129 243 83 77
1.21543776988983 -0.333761125802994 2.43700003623962 245 82 77
1.21964633464813 -0.333107143640518 2.43200016021729 243 79 74
1.22786700725555 -0.333550006151199 2.43500018119812 239 75 70
1.23509573936462 -0.333720207214355 2.43600010871887 245 82 77
1.23927748203278 -0.333069622516632 2.43100023269653 239 79 72
1.26672673225403 -0.333356857299805 2.43200016021729 233 75 68
1.27504873275757 -0.333808958530426 2.43500018119812 236 80 74
1.28392028808594 -0.334399521350861 2.43900012969971 236 82 76
1.12003374099731 -0.343506813049316 2.46200013160706 236 83 93
1.11988055706024 -0.341428339481354 2.44700002670288 242 85 92
1.12379276752472 -0.340606510639191 2.44100022315979 251 92 90
1.12813913822174 -0.339925080537796 2.43600010871887 251 92 89
1.13479137420654 -0.339942365884781 2.43600010871887 253 88 92
1.1433219909668 -0.340518891811371 2.44000005722046 247 83 84
1.15235006809235 -0.341236054897308 2.44500017166138 250 85 86
1.15666925907135 -0.340558588504791 2.44000005722046 255 94 95
1.16287279129028 -0.340440511703491 2.43900012969971 250 86 85
1.1676367521286 -0.33990466594696 2.43500018119812 248 85 82
1.17383015155792 -0.33978858590126 2.43400001525879 250 87 84
1.18002283573151 -0.339673697948456 2.43300008773804 247 84 81
1.18865370750427 -0.340258002281189 2.43700003623962 242 82 76
1.19387805461884 -0.339866071939468 2.43400001525879 247 87 80
1.20057082176208 -0.339894145727158 2.43400001525879 245 85 79
1.20478880405426 -0.339225143194199 2.42900013923645 245 82 79
1.21197712421417 -0.339395225048065 2.4300000667572 244 80 77
1.21817362308502 -0.339287161827087 2.42900013923645 236 72 69
1.22789990901947 -0.34015816450119 2.43500018119812 242 78 75
1.23259496688843 -0.339633464813232 2.43100023269653 241 78 73
1.23523437976837 -0.338550984859467 2.42300009727478 235 75 68
1.23834848403931 -0.337609350681305 2.41600012779236 240 80 73
1.24761354923248 -0.338345795869827 2.4210000038147 237 79 73
1.25380444526672 -0.338245064020157 2.42000007629395 238 80 73
1.26051688194275 -0.338285446166992 2.42000007629395 237 81 74
1.266188621521 -0.338047564029694 2.41800022125244 231 78 70
1.27448797225952 -0.338510066270828 2.4210000038147 228 75 67
1.12914669513702 -0.353020012378693 2.48200011253357 191 97 108
1.12172639369965 -0.348625808954239 2.45100021362305 229 90 96
1.12196719646454 -0.346650332212448 2.43700003623962 246 96 82
1.12537741661072 -0.345671445131302 2.4300000667572 253 99 93
1.13341188430786 -0.346116065979004 2.43300008773804 254 97 94
1.14099836349487 -0.346419513225555 2.43500018119812 249 90 87
1.14812850952148 -0.346581757068634 2.43600010871887 247 86 84
1.1528981924057 -0.346033662557602 2.43200016021729 248 84 83
1.15717351436615 -0.34534427523613 2.42700004577637 244 80 79
1.16094672679901 -0.344513595104218 2.4210000038147 250 86 85
1.16662061214447 -0.344253182411194 2.41900014877319 245 82 79
1.17325830459595 -0.344278454780579 2.41900014877319 242 79 76
1.18380284309387 -0.345443546772003 2.42700004577637 242 81 78
1.18998193740845 -0.345328867435455 2.42600011825562 243 82 79
1.19714713096619 -0.345500111579895 2.42700004577637 243 82 79
1.20432305335999 -0.345672518014908 2.4280002117157 245 82 79
1.21450257301331 -0.346700489521027 2.43500018119812 237 74 71
1.21971082687378 -0.346305906772614 2.43200016021729 239 75 72
1.22389948368073 -0.34562760591507 2.42700004577637 242 78 75
1.22553145885468 -0.34423840045929 2.41700005531311 241 78 75
1.22966289520264 -0.343562334775925 2.41200017929077 236 75 72
1.23582315444946 -0.343457192182541 2.41100001335144 236 76 70
1.24198377132416 -0.343353360891342 2.41000008583069 231 73 66
1.2471090555191 -0.342965841293335 2.40700006484985 227 72 62
1.25326585769653 -0.342864573001862 2.4060001373291 230 78 66
1.26413679122925 -0.344047337770462 2.41400003433228 231 78 68
1.27084720134735 -0.344091475009918 2.41400003433228 233 81 69
1.27756464481354 -0.344136983156204 2.41400003433228 232 79 69
1.11784040927887 -0.351948201656342 2.4280002117157 226 87 76
1.12215316295624 -0.351240754127502 2.42300009727478 248 96 90
1.12923777103424 -0.351404130458832 2.42400002479553 252 98 92
1.1349264383316 -0.351133674383163 2.42200016975403 248 91 88
1.14155077934265 -0.351154208183289 2.42200016975403 255 97 94
1.14770519733429 -0.351030826568604 2.4210000038147 251 90 87
1.15338218212128 -0.350763529539108 2.41900014877319 255 92 89
1.15905249118805 -0.350497275590897 2.41700005531311 247 83 82
1.16326975822449 -0.34979709982872 2.41200017929077 236 75 72
1.16988945007324 -0.349823117256165 2.41200017929077 242 81 78
1.17992830276489 -0.350865572690964 2.41900014877319 245 84 81
1.18559587001801 -0.350603848695755 2.41700005531311 239 81 75
1.19125783443451 -0.350343316793442 2.41500020027161 243 82 79
1.19790589809418 -0.350374102592468 2.41500020027161 242 79 76
1.21004581451416 -0.352002114057541 2.42600011825562 237 74 71
1.21523070335388 -0.351600229740143 2.42300009727478 237 74 71
1.2199000120163 -0.351054340600967 2.41900014877319 244 80 77
1.22049689292908 -0.349348574876785 2.40700006484985 236 73 70
1.22511148452759 -0.348804891109467 2.40300011634827 232 71 68
1.23022305965424 -0.348407626152039 2.40000009536743 240 80 74
1.23480844497681 -0.347866415977478 2.39600014686584 235 77 70
1.24300527572632 -0.348342835903168 2.39900016784668 246 91 81
1.25122487545013 -0.348820686340332 2.40200018882751 237 82 71
1.2620861530304 -0.350026249885559 2.41000008583069 233 81 69
1.26615464687347 -0.349345177412033 2.40500020980835 230 78 64
1.27178990840912 -0.349101126194 2.40300011634827 234 82 68
1.12646210193634 -0.357086926698685 2.41800022125244 228 108 101
1.13119781017303 -0.35651621222496 2.41400003433228 249 97 93
1.13544487953186 -0.355798900127411 2.40900015830994 245 88 85
1.14251303672791 -0.355968773365021 2.41000008583069 242 79 76
1.14816093444824 -0.355696707963943 2.40800023078918 240 76 73
1.15524077415466 -0.355868875980377 2.40900015830994 247 84 81
1.15943706035614 -0.355155766010284 2.40400004386902 243 82 79
1.16749107837677 -0.355625748634338 2.40700006484985 243 82 79
1.17800533771515 -0.356835722923279 2.41500020027161 245 84 81
1.18366312980652 -0.356569349765778 2.41300010681152 244 83 80
1.1878354549408 -0.3558609187603 2.40800023078918 245 82 79
1.19446539878845 -0.355892449617386 2.40800023078918 244 81 78
1.20509111881256 -0.357107758522034 2.41600012779236 242 79 76
1.21125280857086 -0.356994122266769 2.41500020027161 238 75 72
1.21489250659943 -0.356142580509186 2.40900015830994 247 84 81
1.21799838542938 -0.355144321918488 2.40200018882751 238 75 72
1.22311043739319 -0.354738622903824 2.39900016784668 233 72 69
1.22769951820374 -0.354186296463013 2.39500021934509 234 75 72
1.24045646190643 -0.354120701551437 2.39400005340576 236 81 71
1.2481427192688 -0.354459851980209 2.39600014686584 232 80 68
1.25794148445129 -0.355392277240753 2.40200018882751 232 80 68
1.26251554489136 -0.354846596717834 2.39800000190735 237 85 71
1.12700140476227 -0.361705511808395 2.40500020980835 215 87 82
1.13216745853424 -0.361276060342789 2.40200018882751 229 79 75
1.13921761512756 -0.361449271440506 2.40300011634827 241 77 74
1.1453241109848 -0.361322849988937 2.40200018882751 244 80 77
1.15286839008331 -0.361648857593536 2.40400004386902 246 83 80
1.15898132324219 -0.361524760723114 2.40300011634827 246 85 82
1.16606366634369 -0.361702710390091 2.40400004386902 238 77 74
1.17608308792114 -0.362784713506699 2.41100001335144 251 90 87
1.18271231651306 -0.362814724445343 2.41100001335144 249 86 83
1.18540024757385 -0.361642062664032 2.40300011634827 238 74 69
1.18904137611389 -0.360771417617798 2.3970000743866 239 75 70
1.19714426994324 -0.36125659942627 2.40000009536743 245 81 78
1.20526909828186 -0.361743122339249 2.40300011634827 247 84 81
1.21139883995056 -0.361628890037537 2.40200018882751 238 75 72
1.21600759029388 -0.361064165830612 2.39800000190735 241 78 75
1.22161972522736 -0.360801875591278 2.39600014686584 233 72 69
1.22517657279968 -0.359938502311707 2.39000010490417 233 74 71
1.23128306865692 -0.359829396009445 2.38900017738342 234 78 71
1.23946332931519 -0.360324203968048 2.39200019836426 236 81 71
1.24558258056641 -0.360217809677124 2.39100003242493 231 78 68
1.25275051593781 -0.360414296388626 2.39200019836426 232 79 69
1.25571846961975 -0.359406650066376 2.38500022888184 235 80 69
1.13219010829926 -0.367787539958954 2.40200018882751 220 120 113
1.13781917095184 -0.367504835128784 2.40000009536743 221 67 63
1.14105749130249 -0.366457581520081 2.39300012588501 245 84 81
1.1466600894928 -0.36617711186409 2.39100003242493 245 84 81
1.15370333194733 -0.366357296705246 2.39200019836426 243 82 79
1.16124153137207 -0.366691827774048 2.39400005340576 247 84 81
1.17025923728943 -0.367487192153931 2.39900016784668 243 80 77
1.17734718322754 -0.367671102285385 2.40000009536743 248 85 82
1.18247258663177 -0.367243528366089 2.3970000743866 237 73 68
1.18659460544586 -0.366510689258575 2.39200019836426 236 72 67
1.19318842887878 -0.366545140743256 2.39200019836426 240 77 72
1.20079100131989 -0.366887390613556 2.39400005340576 244 81 76
1.20487976074219 -0.366158217191696 2.38900017738342 236 73 70
1.21097528934479 -0.366043329238892 2.38800001144409 232 71 68
1.21758079528809 -0.366083115339279 2.38800001144409 230 69 66
1.22368001937866 -0.365970939397812 2.38700008392334 236 78 72
1.22668707370758 -0.364940136671066 2.38000011444092 239 81 75
1.2306981086731 -0.364217132329941 2.375 240 82 76
1.23781371116638 -0.364415735006332 2.37600016593933 230 74 68
1.24441766738892 -0.364462405443192 2.37600016593933 232 75 72
1.14524805545807 -0.372193992137909 2.38800001144409 219 78 77
1.15228426456451 -0.372377663850784 2.38900017738342 236 85 85
1.15933060646057 -0.372562557458878 2.39000010490417 243 88 88
1.16589939594269 -0.372592836618423 2.39000010490417 243 82 80
1.17394506931305 -0.373092085123062 2.39300012588501 240 79 76
1.18003904819489 -0.372968971729279 2.39200019836426 241 78 75
1.18365240097046 -0.372067481279373 2.38600015640259 241 78 73
1.18823564052582 -0.371479034423828 2.382000207901 239 76 71
1.19430732727051 -0.371359676122665 2.38100004196167 237 74 69
1.20037877559662 -0.371241629123688 2.38000011444092 238 77 74
1.20594358444214 -0.370968908071518 2.37800002098084 234 73 70
1.21303284168243 -0.371165633201599 2.37900018692017 231 70 67
1.21859574317932 -0.370895624160767 2.37700009346008 236 77 74
1.22363817691803 -0.37047091126442 2.37400007247925 235 76 73
1.22711575031281 -0.369579315185547 2.36800003051758 235 76 73
1.23265027999878 -0.369313389062881 2.36600017547607 232 75 72
1.23975169658661 -0.369517117738724 2.36700010299683 223 66 63
1.14845430850983 -0.3775894343853 2.38100004196167 202 89 88
1.15353941917419 -0.377143412828445 2.37800002098084 224 71 71
1.1615401506424 -0.377650201320648 2.38100004196167 240 85 83
1.16907167434692 -0.377999752759933 2.38300013542175 239 82 79
1.17612612247467 -0.378192037343979 2.3840000629425 248 88 82
1.17971873283386 -0.377275079488754 2.37800002098084 230 70 64
1.18577778339386 -0.377152651548386 2.37700009346008 238 75 70
1.19183695316315 -0.37703150510788 2.37600016593933 238 75 70
1.19638311862946 -0.37643563747406 2.37200021743774 237 77 71
1.19939124584198 -0.375364810228348 2.36500000953674 239 79 73
1.20746576786041 -0.375882476568222 2.36800003051758 246 85 82
1.2150502204895 -0.376242995262146 2.37000012397766 233 72 69
1.21852838993073 -0.375334858894348 2.36400008201599 233 72 69
1.22146129608154 -0.374269127845764 2.35700011253357 236 75 72
1.22696673870087 -0.373998641967773 2.35500001907349 232 73 70
1.23456299304962 -0.374364972114563 2.35700011253357 233 76 73
1.16419923305511 -0.382853925228119 2.3730001449585 213 71 66
1.17024075984955 -0.382727026939392 2.37200021743774 231 79 75
1.17280924320221 -0.38147184252739 2.36400008201599 236 79 76
1.17982864379883 -0.38167017698288 2.36500000953674 238 81 78
1.18836426734924 -0.382354170084 2.36900019645691 235 77 71
1.19339656829834 -0.38190969824791 2.36600017547607 230 74 68
1.19638967514038 -0.380820900201797 2.35900020599365 236 80 74
1.20495891571045 -0.381509155035019 2.36300015449524 233 74 71
1.21201837062836 -0.38171461224556 2.36400008201599 231 72 69
1.21651220321655 -0.381114184856415 2.3600001335144 230 69 67
1.21943533420563 -0.380030512809753 2.35300016403198 235 73 74
1.22180485725403 -0.378786534070969 2.34500002861023 234 74 75
1.23042249679565 -0.379482388496399 2.3490002155304 234 74 75
1.23274970054626 -0.378241091966629 2.34100008010864 233 76 74
1.24245047569275 -0.379263281822205 2.34700012207031 230 76 72
1.1653425693512 -0.387525618076324 2.36200022697449 203 79 73
1.16937303543091 -0.386741757392883 2.35700011253357 234 84 80
1.17637455463409 -0.386943697929382 2.35800004005432 239 87 83
1.18288576602936 -0.386983036994934 2.35800004005432 233 80 72
1.18889784812927 -0.386859565973282 2.35700011253357 237 84 76
1.19389605522156 -0.386409223079681 2.35400009155273 237 84 76
1.20194315910339 -0.386945307254791 2.35700011253357 238 85 77
1.2069365978241 -0.38649770617485 2.35400009155273 230 74 68
1.21088850498199 -0.385723143815994 2.3490002155304 235 76 74
1.21378242969513 -0.384621411561966 2.34200000762939 229 69 70
1.2202912569046 -0.384670674800873 2.34200000762939 227 67 68
1.22785449028015 -0.385050058364868 2.34400010108948 222 65 65
1.23280215263367 -0.384609550237656 2.34100008010864 224 69 67
1.23826956748962 -0.384334832429886 2.33900022506714 226 72 68
1.24479722976685 -0.384390354156494 2.33900022506714 228 74 68
1.25133180618286 -0.384447485208511 2.33900022506714 226 72 66
1.2567982673645 -0.384177505970001 2.33700013160706 223 71 65
1.28796100616455 -0.385909855365753 2.34600019454956 219 67 61
1.1774115562439 -0.39368137717247 2.3600001335144 173 90 81
1.18192291259766 -0.3930544257164 2.35600018501282 233 99 93
1.18692219257355 -0.392595589160919 2.35300016403198 229 89 82
1.19241786003113 -0.392304986715317 2.3510000705719 240 90 84
1.19943809509277 -0.39251646399498 2.35199999809265 236 87 79
1.20441925525665 -0.392061829566956 2.3490002155304 235 83 79
1.2068122625351 -0.390773981809616 2.34100008010864 227 75 71
1.21072196960449 -0.38998818397522 2.3360002040863 232 77 75
1.21773660182953 -0.390205472707748 2.33700013160706 236 79 79
1.22371602058411 -0.390090435743332 2.3360002040863 227 72 70
1.22916948795319 -0.389809906482697 2.33400011062622 228 74 70
1.23303055763245 -0.389029741287231 2.3289999961853 229 75 71
1.24006426334381 -0.389253437519073 2.33000016212463 227 75 71
1.2487154006958 -0.38998007774353 2.33400011062622 223 71 65
1.2557829618454 -0.390207201242447 2.33500003814697 227 75 69
1.26124155521393 -0.389934748411179 2.33300018310547 224 72 66
1.2776106595993 -0.391066581010818 2.33900022506714 225 73 67
1.18096113204956 -0.399115771055222 2.35400009155273 249 160 150
1.18444275856018 -0.398141115903854 2.34800004959106 207 85 78
1.18891179561615 -0.397506952285767 2.34400010108948 233 93 86
1.19795429706573 -0.398400574922562 2.3490002155304 231 87 80
1.20241546630859 -0.397769242525101 2.34500002861023 236 86 82
1.20531415939331 -0.396630346775055 2.33800005912781 231 79 75
1.20921719074249 -0.395832121372223 2.33300018310547 233 80 78
1.21726739406586 -0.396392732858658 2.3360002040863 230 77 75
1.22114992141724 -0.395597398281097 2.33100008964539 228 74 70
1.22395777702332 -0.394463926553726 2.32400012016296 226 72 68
1.25100409984589 -0.395038247108459 2.32600021362305 220 68 64
1.25589859485626 -0.394591689109802 2.32300019264221 222 70 64
1.26350116729736 -0.394996136426926 2.32500004768372 228 77 69
1.19698107242584 -0.404441565275192 2.34700012207031 173 83 75
1.20297694206238 -0.404317587614059 2.34600019454956 228 91 87
1.20278644561768 -0.402126729488373 2.33300018310547 225 82 81
1.20460367202759 -0.400626420974731 2.32400012016296 231 81 81
1.20950353145599 -0.400161743164063 2.32100009918213 225 76 73
1.2154415845871 -0.400043457746506 2.32000017166138 222 72 69
1.20148801803589 -0.410171926021576 2.34300017356873 228 128 123
1.20593094825745 -0.40952268242836 2.33900022506714 200 69 67
1.20672941207886 -0.40764907002449 2.32800006866455 227 82 81
1.20799422264099 -0.405951768159866 2.31800007820129 227 82 81
1.211829662323 -0.405131369829178 2.31300020217896 229 79 79
1.21013391017914 -0.412971347570419 2.32200002670288 190 78 77
1.21293425559998 -0.411783039569855 2.31500005722046 217 83 84
1.21464860439301 -0.410240232944489 2.30599999427795 220 81 82
1.21526074409485 -0.408342868089676 2.29500007629395 227 79 81
1.2124685049057 -0.417904853820801 2.31400012969971 189 77 76
1.21681535243988 -0.417242050170898 2.31000018119812 198 69 69
1.2179696559906 -0.415496855974197 2.30000019073486 216 75 74
1.22226905822754 -0.414836913347244 2.2960000038147 220 77 74
1.22332799434662 -0.423596054315567 2.31000018119812 199 70 68
1.22552752494812 -0.422193348407745 2.30200004577637 218 81 77
1.22501361370087 -0.41987481713295 2.28900003433228 214 77 73
1.22927606105804 -0.419208556413651 2.28500008583069 214 73 72
1.23622715473175 -0.419461280107498 2.28600001335144 225 72 72
1.22936284542084 -0.427603721618652 2.29700016975403 172 67 63
1.2336493730545 -0.426928341388702 2.29300022125244 206 77 75
1.23575758934021 -0.425509631633759 2.28500008583069 214 68 70
1.24232017993927 -0.434009999036789 2.29700016975403 193 59 61
1.2395339012146 -0.430872112512589 2.28000020980835 214 73 74
1.24165546894073 -0.435638308525085 2.2720000743866 195 85 85
1.24146676063538 -0.433416575193405 2.25999999046326 208 70 71
1.2442946434021 -0.440561562776566 2.26500010490417 185 70 70
1.247927069664 -0.439671874046326 2.25999999046326 189 59 61
1.24765491485596 -0.437421917915344 2.2480001449585 218 77 78
1.25243210792542 -0.44306293129921 2.24500012397766 186 71 68
1.25487172603607 -0.441771686077118 2.23800015449524 205 67 62
1.25720691680908 -0.448694676160812 2.24200010299683 189 65 59
1.26188313961029 -0.448188662528992 2.23900008201599 202 70 64
1.26825034618378 -0.44828525185585 2.23900008201599 206 66 61
1.26551687717438 -0.453401267528534 2.23400020599365 159 62 59
1.26903474330902 -0.452486902475357 2.22900009155273 197 64 62
1.2634437084198 -0.456536531448364 2.21900010108948 223 120 118
1.2663437128067 -0.455406188964844 2.21300005912781 179 48 46
1.27381980419159 -0.455924391746521 2.21500015258789 202 62 57
