-0.94042956829071 -0.32591125369072 2.37100005149841 255 112 93
-0.93284684419632 -0.32550373673439 2.36800003051758 246 105 84
-0.925281703472137 -0.325096786022186 2.36500000953674 255 119 98
-0.91851145029068 -0.324965357780457 2.36400008201599 255 121 100
-0.912133872509003 -0.324972003698349 2.36400008201599 251 112 91
-0.907290041446686 -0.325529038906097 2.36800003051758 255 119 100
-0.903567433357239 -0.326499164104462 2.375 255 117 98
-0.898297250270844 -0.326919943094254 2.37800002098084 255 120 99
-0.891136825084686 -0.326653897762299 2.37600016593933 252 113 92
-0.884360551834106 -0.326525837182999 2.375 252 116 93
-0.878330111503601 -0.326673328876495 2.37600016593933 255 121 98
-0.872662127017975 -0.326958745718002 2.37800002098084 255 124 101
-0.86516273021698 -0.326557189226151 2.375 255 125 103
-0.858765363693237 -0.32656866312027 2.375 255 123 101
-0.852009832859039 -0.32644310593605 2.37400007247925 255 125 106
-0.846328973770142 -0.326730489730835 2.37600016593933 252 115 96
-0.840284585952759 -0.326880872249603 2.37700009346008 255 123 105
-0.833884596824646 -0.326894164085388 2.37700009346008 255 125 107
-0.827136993408203 -0.32677036523819 2.37600016593933 255 121 103
-0.820740640163422 -0.326784461736679 2.37600016593933 255 122 100
-0.814002096652985 -0.326661497354507 2.375 255 124 101
-0.807949542999268 -0.326813966035843 2.37600016593933 255 132 106
-0.80054247379303 -0.326416671276093 2.3730001449585 255 135 109
-0.795159876346588 -0.326845020055771 2.37600016593933 255 128 102
-0.789097428321838 -0.326998651027679 2.37700009346008 255 129 105
-0.783029675483704 -0.327152609825134 2.37800002098084 255 130 106
-0.776630163192749 -0.327169418334961 2.37800002098084 255 127 103
-0.769583165645599 -0.326911360025406 2.37600016593933 255 131 107
-0.763831734657288 -0.327203989028931 2.37800002098084 255 134 110
-0.756476879119873 -0.326808899641037 2.375 255 135 112
-0.751033306121826 -0.327239811420441 2.37800002098084 255 132 112
-0.744634032249451 -0.327258110046387 2.37800002098084 255 132 112
-0.739165961742401 -0.327689617872238 2.38100004196167 255 134 111
-0.732143044471741 -0.327433317899704 2.37900018692017 255 137 110
-0.726655900478363 -0.327865421772003 2.382000207901 255 142 111
-0.720547735691071 -0.328022509813309 2.38300013542175 255 142 108
-0.714134156703949 -0.328042179346085 2.38300013542175 246 132 98
-0.706829369068146 -0.327649116516113 2.38000011444092 233 151 89
-0.700129091739655 -0.327531576156616 2.37900018692017 255 231 140
-0.693725347518921 -0.327551901340485 2.37900018692017 255 255 135
-0.688188016414642 -0.327985495328903 2.382000207901 255 255 128
-0.681775450706482 -0.328006237745285 2.382000207901 255 255 126
-0.675362467765808 -0.328027188777924 2.382000207901 255 255 111
-0.668668150901794 -0.327910512685776 2.38100004196167 255 255 109
-0.661700665950775 -0.327656358480453 2.37900018692017 255 255 117
-0.655569732189178 -0.327815473079681 2.38000011444092 255 255 128
-0.649159908294678 -0.327836960554123 2.38000011444092 232 151 85
-0.643019676208496 -0.327996373176575 2.38100004196167 254 145 107
-0.636873602867126 -0.328156024217606 2.382000207901 255 139 112
-0.631515443325043 -0.328729033470154 2.38600015640259 255 143 122
-0.625349044799805 -0.328888893127441 2.38700008392334 255 144 120
-0.618139505386353 -0.328497678041458 2.3840000629425 255 147 122
-0.611458599567413 -0.328382134437561 2.38300013542175 255 142 117
-0.605543911457062 -0.328680068254471 2.38500022888184 255 143 122
-0.598864197731018 -0.328564614057541 2.3840000629425 255 138 117
-0.592189133167267 -0.328449279069901 2.38300013542175 255 137 116
-0.585764467716217 -0.328471750020981 2.38300013542175 255 139 118
-0.579095840454102 -0.32835641503334 2.382000207901 255 137 116
-0.572672188282013 -0.32837900519371 2.382000207901 255 142 119
-0.566723167896271 -0.328677296638489 2.3840000629425 255 145 118
-0.560762524604797 -0.328975677490234 2.38600015640259 253 136 115
-0.555254757404327 -0.329549878835678 2.39000010490417 255 158 137
-1.01052868366241 -0.330079138278961 2.35500001907349 203 97 81
-1.00499844551086 -0.330355674028397 2.35700011253357 243 104 86
-0.999459862709045 -0.330632954835892 2.35900020599365 248 107 88
-0.992649912834167 -0.330490559339523 2.35800004005432 246 106 83
-0.98584771156311 -0.330348879098892 2.35700011253357 249 109 86
-0.979468703269959 -0.33034810423851 2.35700011253357 246 103 82
-0.973504781723022 -0.330488204956055 2.35800004005432 248 105 86
-0.966307163238525 -0.330208569765091 2.35600018501282 250 106 89
-0.960752010345459 -0.330490231513977 2.35800004005432 255 112 95
-0.953973829746246 -0.330352157354355 2.35700011253357 252 106 91
-0.949615061283112 -0.331055641174316 2.36200022697449 253 107 92
-0.944033026695251 -0.331339359283447 2.36400008201599 252 106 91
-0.936855494976044 -0.331063121557236 2.36200022697449 254 108 91
-0.930084228515625 -0.330927610397339 2.36100006103516 251 107 90
-0.923319935798645 -0.330792725086212 2.3600001335144 253 109 92
-0.916562616825104 -0.3306585252285 2.35900020599365 255 112 95
-0.909426093101501 -0.33038467168808 2.35700011253357 255 112 95
-0.90460067987442 -0.330952435731888 2.36100006103516 254 108 91
-0.900515854358673 -0.331801176071167 2.36700010299683 251 107 90
-0.894511163234711 -0.331949651241302 2.36800003051758 255 113 94
-0.887002110481262 -0.331537902355194 2.36500000953674 255 112 95
-0.880999624729156 -0.331687450408936 2.36600017547607 255 116 95
-0.874992847442627 -0.331837505102158 2.36700010299683 255 116 95
-0.868981719017029 -0.331988155841827 2.36800003051758 255 120 98
-0.861873209476471 -0.331718653440475 2.36600017547607 255 125 103
-0.855499505996704 -0.331730097532272 2.36600017547607 255 122 100
-0.849485456943512 -0.331882178783417 2.36700010299683 255 120 98
-0.844179153442383 -0.332315176725388 2.37000012397766 255 119 100
-0.838504016399384 -0.332608491182327 2.37200021743774 254 118 96
-0.832467794418335 -0.332762002944946 2.3730001449585 254 118 95
-0.825034379959106 -0.332355082035065 2.37000012397766 255 119 96
-0.818653702735901 -0.332369208335876 2.37000012397766 255 126 99
-0.811931014060974 -0.33224356174469 2.36900019645691 255 122 95
-0.805554032325745 -0.332258552312851 2.36900019645691 255 125 98
-0.799177587032318 -0.332273960113525 2.36900019645691 254 122 96
-0.793470621109009 -0.332570195198059 2.37100005149841 255 130 104
-0.788085162639618 -0.333007156848907 2.37400007247925 255 125 99
-0.781037449836731 -0.332743138074875 2.37200021743774 255 132 108
-0.774980306625366 -0.332900285720825 2.3730001449585 255 130 106
-0.767622470855713 -0.332496613264084 2.37000012397766 255 130 106
-0.761565625667572 -0.332654416561127 2.37100005149841 255 138 114
-0.753273904323578 -0.331830441951752 2.36500000953674 255 135 111
-0.748172700405121 -0.332409828901291 2.36900019645691 253 129 106
-0.741797387599945 -0.332428246736526 2.36900019645691 255 134 110
-0.736042737960815 -0.332727611064911 2.37100005149841 254 132 101
-0.72904646396637 -0.332465946674347 2.36900019645691 247 127 94
-0.723585963249207 -0.332906305789948 2.37200021743774 251 136 98
-0.711417257785797 -0.333226352930069 2.37400007247925 255 244 159
-0.704136490821838 -0.332825303077698 2.37100005149841 255 255 143
-0.698048830032349 -0.332985937595367 2.37200021743774 255 255 128
-0.69166362285614 -0.333006411790848 2.37200021743774 255 255 122
-0.68585604429245 -0.333307892084122 2.37400007247925 255 255 123
-0.679751038551331 -0.333469152450562 2.375 255 255 115
-0.673356711864471 -0.333490252494812 2.375 255 255 106
-0.66640031337738 -0.333230644464493 2.3730001449585 255 255 114
-0.658897936344147 -0.332690358161926 2.36900019645691 255 255 117
-0.652793705463409 -0.332852333784103 2.37000012397766 255 255 118
-0.64668345451355 -0.333014458417892 2.37100005149841 255 255 137
-0.640567421913147 -0.333176761865616 2.37200021743774 228 145 75
-0.633643209934235 -0.332917809486389 2.37000012397766 255 138 115
-0.62831723690033 -0.333501785993576 2.37400007247925 255 143 122
-0.622183084487915 -0.33366447687149 2.375 255 148 119
-0.616042912006378 -0.333827346563339 2.37600016593933 255 138 111
-0.608870387077332 -0.333428263664246 2.3730001449585 255 140 113
-0.602728664875031 -0.333591222763062 2.37400007247925 255 140 117
-0.595827400684357 -0.333332747220993 2.37200021743774 255 143 120
-0.589681565761566 -0.333495885133743 2.3730001449585 254 134 111
-0.583775341510773 -0.333799600601196 2.375 255 136 115
-0.577371418476105 -0.3338223695755 2.375 255 137 116
-0.570726156234741 -0.333704560995102 2.37400007247925 255 141 120
-0.564560949802399 -0.333867907524109 2.375 253 132 113
-0.559799671173096 -0.334874868392944 2.382000207901 247 145 130
-1.01260125637054 -0.335028260946274 2.34500002861023 236 110 96
-1.00624203681946 -0.335023403167725 2.34500002861023 236 98 83
-1.0007381439209 -0.335305005311966 2.34700012207031 248 105 86
-0.994802176952362 -0.335444539785385 2.34800004959106 253 110 91
-0.988863229751587 -0.335584878921509 2.3490002155304 252 109 88
-0.981666386127472 -0.335297346115112 2.34700012207031 253 111 88
-0.974898278713226 -0.335153490304947 2.34600019454956 255 112 91
-0.969376087188721 -0.335438877344131 2.34800004959106 248 105 86
-0.962614893913269 -0.335296452045441 2.34700012207031 252 106 89
-0.956268608570099 -0.335297614336014 2.34700012207031 251 105 90
-0.949924170970917 -0.335299432277679 2.34700012207031 251 105 90
-0.944787621498108 -0.335730582475662 2.35000014305115 249 103 88
-0.940035998821259 -0.336305171251297 2.35400009155273 255 113 98
-0.933678090572357 -0.33630907535553 2.35400009155273 251 105 88
-0.927715659141541 -0.336456418037415 2.35500001907349 255 110 93
-0.921358227729797 -0.33646160364151 2.35500001907349 255 112 95
-0.914225220680237 -0.336181640625 2.35300016403198 250 104 87
-0.907490134239197 -0.33604508638382 2.35199999809265 251 105 88
-0.901528179645538 -0.33619499206543 2.35300016403198 254 107 90
-0.897464334964752 -0.337059825658798 2.35900020599365 255 109 92
-0.89148074388504 -0.337210893630981 2.3600001335144 248 102 85
-0.88436758518219 -0.336933821439743 2.35800004005432 255 115 98
-0.877638816833496 -0.336800217628479 2.35700011253357 252 111 90
-0.872025489807129 -0.337095826864243 2.35900020599365 250 111 90
-0.866769313812256 -0.33753490447998 2.36200022697449 255 125 102
-0.859676361083984 -0.337259918451309 2.3600001335144 255 120 98
-0.852595210075378 -0.336985468864441 2.35800004005432 255 121 98
-0.845884501934052 -0.336854428052902 2.35700011253357 252 116 94
-0.84024852514267 -0.337152630090714 2.35900020599365 255 123 104
-0.834955990314484 -0.337594211101532 2.36200022697449 255 119 97
-0.829297006130219 -0.337893337011337 2.36400008201599 255 129 106
-0.822583615779877 -0.337764173746109 2.36300015449524 255 126 99
-0.816221475601196 -0.337778329849243 2.36300015449524 255 124 97
-0.809859812259674 -0.337792903184891 2.36300015449524 255 126 96
-0.80349862575531 -0.337807953357697 2.36300015449524 255 124 97
-0.796800553798676 -0.337680369615555 2.36200022697449 255 125 99
-0.791112005710602 -0.337982088327408 2.36400008201599 255 127 101
-0.785413086414337 -0.338284283876419 2.36600017547607 255 130 104
-0.779045045375824 -0.338300853967667 2.36600017547607 255 131 105
-0.772677183151245 -0.338317781686783 2.36600017547607 255 129 107
-0.765337824821472 -0.337906032800674 2.36300015449524 255 123 105
-0.758657217025757 -0.337780654430389 2.36200022697449 255 132 109
-0.751344919204712 -0.337369531393051 2.35900020599365 254 134 103
-0.745627760887146 -0.337673753499985 2.36100006103516 240 126 91
-0.73989999294281 -0.337978363037109 2.36300015449524 249 164 106
-0.733850836753845 -0.338140219449997 2.36400008201599 254 235 133
-0.727180778980255 -0.338016331195831 2.36300015449524 255 255 137
-0.721431016921997 -0.33832174539566 2.36500000953674 255 255 114
-0.715065658092499 -0.338341414928436 2.36500000953674 255 255 121
-0.708999931812286 -0.338504463434219 2.36600017547607 255 255 125
-0.702037394046783 -0.338238447904587 2.36400008201599 255 255 115
-0.695968329906464 -0.338401913642883 2.36500000953674 255 255 108
-0.690184950828552 -0.338708698749542 2.36700010299683 255 255 117
-0.684101700782776 -0.338872641324997 2.36800003051758 255 255 121
-0.678012788295746 -0.339036852121353 2.36900019645691 255 255 113
-0.671350836753845 -0.338914960622787 2.36800003051758 255 255 106
-0.66469395160675 -0.338793247938156 2.36700010299683 255 255 113
-0.657485663890839 -0.338385403156281 2.36400008201599 255 255 121
-0.651394784450531 -0.338550209999084 2.36500000953674 255 255 117
-0.645570635795593 -0.33885845541954 2.36700010299683 255 255 124
-0.639195144176483 -0.338880479335785 2.36700010299683 255 255 127
-0.632284343242645 -0.338616281747818 2.36500000953674 238 155 89
-0.62644237279892 -0.338924914598465 2.36700010299683 255 148 114
-0.620326936244965 -0.339090526103973 2.36800003051758 255 141 107
-0.614464819431305 -0.339399427175522 2.37000012397766 253 136 107
-0.607821464538574 -0.339278876781464 2.36900019645691 255 137 110
-0.601182758808136 -0.339158356189728 2.36800003051758 255 138 113
-0.594297528266907 -0.338894635438919 2.36600017547607 255 141 116
-0.587670862674713 -0.33877420425415 2.36500000953674 255 141 117
-0.581294596195221 -0.338797032833099 2.36500000953674 255 133 110
-0.575403809547424 -0.339106500148773 2.36700010299683 255 134 115
-0.569020569324493 -0.339129447937012 2.36700010299683 255 134 118
-0.563825011253357 -0.339868873357773 2.37200021743774 255 136 123
-1.00958395004272 -0.340355604887009 2.33800005912781 246 111 93
-1.00281393527985 -0.340204834938049 2.33700013160706 241 102 84
-0.998610019683838 -0.340928256511688 2.34200000762939 245 104 85
-0.99226313829422 -0.340924590826035 2.34200000762939 246 103 84
-0.986339747905731 -0.341067343950272 2.34300017356873 255 114 93
-0.977485239505768 -0.340191841125488 2.33700013160706 245 103 80
-0.972405672073364 -0.340627253055573 2.34000015258789 249 107 84
-0.96689909696579 -0.34091779589653 2.34200000762939 251 106 84
-0.960973680019379 -0.341063529253006 2.34300017356873 251 106 85
-0.953822553157806 -0.340773344039917 2.34100008010864 252 106 88
-0.947088956832886 -0.340629369020462 2.34000015258789 248 102 84
-0.940764486789703 -0.340631693601608 2.34000015258789 255 113 96
-0.935240566730499 -0.340925753116608 2.34200000762939 249 103 86
-0.930104196071625 -0.341366142034531 2.34500002861023 255 110 93
-0.924559473991394 -0.341661691665649 2.34700012207031 255 111 96
-0.919005513191223 -0.341957807540894 2.3490002155304 253 107 90
-0.911499440670013 -0.341526716947556 2.34600019454956 255 111 94
-0.904782712459564 -0.341387361288071 2.34500002861023 250 104 87
-0.898072719573975 -0.341248601675034 2.34400010108948 255 108 90
-0.892891347408295 -0.341692805290222 2.34700012207031 253 107 86
-0.88618391752243 -0.341555237770081 2.34600019454956 246 101 79
-0.879858136177063 -0.341563820838928 2.34600019454956 255 112 91
-0.874278128147125 -0.341864168643951 2.34800004959106 255 116 93
-0.868318915367126 -0.342019557952881 2.3490002155304 255 120 97
-0.862722039222717 -0.34232097864151 2.3510000705719 253 117 95
-0.856386840343475 -0.342331767082214 2.3510000705719 255 121 99
-0.850414097309113 -0.342488676309586 2.35199999809265 255 121 99
-0.843360245227814 -0.342209279537201 2.35000014305115 252 113 92
-0.837742626667023 -0.342512786388397 2.35199999809265 253 114 93
-0.832114934921265 -0.342816889286041 2.35400009155273 252 116 93
-0.826126277446747 -0.342975795269012 2.35500001907349 255 126 100
-0.819436609745026 -0.34284383058548 2.35400009155273 255 121 94
-0.813789129257202 -0.343149304389954 2.35600018501282 255 128 98
-0.807446002960205 -0.343163937330246 2.35600018501282 255 125 95
-0.801103174686432 -0.343178927898407 2.35600018501282 255 125 98
-0.794760823249817 -0.343194365501404 2.35600018501282 255 125 98
-0.788084208965302 -0.343064516782761 2.35500001907349 255 125 101
-0.782077133655548 -0.343226402997971 2.35600018501282 255 126 102
-0.775406360626221 -0.343097299337387 2.35500001907349 253 125 99
-0.770374119281769 -0.343697100877762 2.35900020599365 255 132 105
-0.763053238391876 -0.343277305364609 2.35600018501282 249 126 99
-0.756069839000702 -0.343003541231155 2.35400009155273 255 142 108
-0.743082940578461 -0.342894047498703 2.35300016403198 255 251 158
-0.73706328868866 -0.343058407306671 2.35400009155273 255 255 147
-0.731658816337585 -0.343514502048492 2.35700011253357 255 255 130
-0.725315034389496 -0.343533754348755 2.35700011253357 255 255 115
-0.719886362552643 -0.343990534543991 2.3600001335144 255 255 108
-0.712929487228394 -0.343718767166138 2.35800004005432 255 255 118
-0.706882238388062 -0.343884617090225 2.35900020599365 255 255 124
-0.700235247612 -0.343759030103683 2.35800004005432 255 255 116
-0.694182157516479 -0.343925386667252 2.35900020599365 255 255 105
-0.688123166561127 -0.344091951847076 2.3600001335144 255 255 109
-0.681480765342712 -0.343967080116272 2.35900020599365 255 255 110
-0.675129592418671 -0.34398826956749 2.35900020599365 255 255 113
-0.668777942657471 -0.344009608030319 2.35900020599365 255 255 114
-0.662425875663757 -0.344031155109406 2.35900020599365 255 255 113
-0.656073331832886 -0.344052881002426 2.35900020599365 255 255 116
-0.649720370769501 -0.344074726104736 2.35900020599365 255 255 119
-0.643366754055023 -0.344096779823303 2.35900020599365 255 255 119
-0.637552738189697 -0.344410717487335 2.36100006103516 255 255 120
-0.630658030509949 -0.344141274690628 2.35900020599365 255 238 124
-0.624038100242615 -0.344017833471298 2.35800004005432 228 145 81
-0.617684900760651 -0.344040393829346 2.35800004005432 255 143 109
-0.612368106842041 -0.344646722078323 2.36200022697449 255 137 109
-0.606259346008301 -0.344815403223038 2.36300015449524 255 138 115
-0.59912896156311 -0.344400495290756 2.3600001335144 255 139 112
-0.59226530790329 -0.344131529331207 2.35800004005432 255 138 111
-0.585908532142639 -0.344154506921768 2.35800004005432 255 138 111
-0.579796969890594 -0.344323515892029 2.35900020599365 255 138 114
-0.573922157287598 -0.344638556241989 2.36100006103516 255 136 117
-0.567314684391022 -0.344515740871429 2.3600001335144 254 132 111
-0.562137961387634 -0.345268875360489 2.36500000953674 245 130 110
-1.02097022533417 -0.346252232789993 2.33500003814697 224 115 103
-1.01506543159485 -0.346393197774887 2.3360002040863 234 98 85
-1.00656712055206 -0.345645308494568 2.33100008964539 242 103 85
-1.00153160095215 -0.34608456492424 2.33400011062622 241 102 84
-0.996055901050568 -0.346376329660416 2.3360002040863 245 102 83
-0.989300787448883 -0.346224039793015 2.33500003814697 242 96 78
-0.981711506843567 -0.345776081085205 2.33200001716614 254 109 88
-0.974140882492065 -0.345328897237778 2.3289999961853 251 106 85
-0.969497799873352 -0.345920443534851 2.33300018310547 249 107 84
-0.964835166931152 -0.346512675285339 2.33700013160706 250 105 83
-0.958922564983368 -0.346660882234573 2.33800005912781 255 111 90
-0.953414022922516 -0.346958100795746 2.34000015258789 252 109 88
-0.945872783660889 -0.346514582633972 2.33700013160706 246 103 82
-0.939153850078583 -0.346368432044983 2.3360002040863 252 106 89
-0.932442009449005 -0.346222907304764 2.33500003814697 248 102 85
-0.927720606327057 -0.346819519996643 2.33900022506714 250 104 87
-0.921009540557861 -0.346675366163254 2.33800005912781 251 105 90
-0.915479123592377 -0.346976757049561 2.34000015258789 255 111 94
-0.907608330249786 -0.346389055252075 2.3360002040863 249 105 88
-0.902075409889221 -0.3466916680336 2.33800005912781 253 110 91
-0.895766794681549 -0.346698343753815 2.33800005912781 254 109 88
-0.890220582485199 -0.347002297639847 2.34000015258789 251 106 84
-0.882775902748108 -0.346565246582031 2.33700013160706 255 116 93
-0.876473903656006 -0.346573770046234 2.33700013160706 255 114 91
-0.870917677879334 -0.346879422664642 2.33900022506714 253 113 90
-0.865721344947815 -0.347333967685699 2.34200000762939 254 116 93
-0.860509812831879 -0.347789019346237 2.34500002861023 249 113 91
-0.854918777942657 -0.348096400499344 2.34700012207031 255 118 99
-0.848594844341278 -0.348107695579529 2.34700012207031 254 117 98
-0.841912746429443 -0.347971111536026 2.34600019454956 254 115 96
-0.83452445268631 -0.347538381814957 2.34300017356873 255 117 96
-0.828213572502136 -0.347551107406616 2.34300017356873 251 113 90
-0.821903228759766 -0.347564309835434 2.34300017356873 255 121 98
-0.816289782524109 -0.347874671220779 2.34500002861023 255 123 96
-0.811011493206024 -0.348333895206451 2.34800004959106 247 113 83
-0.804689466953278 -0.348348438739777 2.34800004959106 252 120 90
-0.798027753829956 -0.348215103149414 2.34700012207031 255 125 95
-0.791709244251251 -0.348230570554733 2.34700012207031 255 133 100
-0.78539103269577 -0.348246365785599 2.34700012207031 254 130 97
-0.779073119163513 -0.3482626080513 2.34700012207031 245 129 88
-0.766111612319946 -0.348147809505463 2.34600019454956 255 235 138
-0.759797036647797 -0.348165154457092 2.34600019454956 255 255 124
-0.753803730010986 -0.348331242799759 2.34700012207031 255 255 115
-0.747486710548401 -0.348349243402481 2.34700012207031 255 255 117
-0.740538120269775 -0.348070740699768 2.34500002861023 255 255 108
-0.73485267162323 -0.348386287689209 2.34700012207031 255 255 104
-0.730087578296661 -0.349147468805313 2.35199999809265 255 255 120
-0.724372506141663 -0.349463731050491 2.35400009155273 255 255 108
-0.718951523303986 -0.349928736686707 2.35700011253357 255 255 113
-0.711397886276245 -0.349354773759842 2.35300016403198 255 255 123
-0.70566338300705 -0.349671840667725 2.35500001907349 255 255 115
-0.699027001857758 -0.349543780088425 2.35400009155273 255 255 110
-0.692395865917206 -0.349415957927704 2.35300016403198 255 255 107
-0.686061203479767 -0.349436789751053 2.35300016403198 255 255 110
-0.678859710693359 -0.349012345075607 2.35000014305115 255 255 110
-0.672532558441162 -0.349033623933792 2.35000014305115 255 255 114
-0.666204929351807 -0.349055051803589 2.35000014305115 255 255 113
-0.660157680511475 -0.349225282669067 2.3510000705719 254 255 112
-0.654104590415955 -0.349395632743835 2.35199999809265 255 255 114
-0.647495031356812 -0.3492691218853 2.3510000705719 255 255 117
-0.641435503959656 -0.349439859390259 2.35199999809265 255 255 114
-0.635910153388977 -0.349907904863358 2.35500001907349 255 255 114
-0.629566133022308 -0.349930435419083 2.35500001907349 255 255 130
-0.623221516609192 -0.349953055381775 2.35500001907349 253 229 118
-0.616876304149628 -0.349975764751434 2.35500001907349 248 138 96
-0.610530495643616 -0.349998652935028 2.35500001907349 255 139 112
-0.604697048664093 -0.350318878889084 2.35700011253357 255 136 117
-0.597075045108795 -0.349598735570908 2.35199999809265 255 141 116
-0.590484023094177 -0.349473148584366 2.3510000705719 255 141 116
-0.583649277687073 -0.349199026823044 2.3490002155304 255 138 114
-0.578299164772034 -0.349816888570786 2.35300016403198 255 138 115
-0.572440445423126 -0.350137501955032 2.35500001907349 255 138 119
-0.566329956054688 -0.350309550762177 2.35600018501282 251 136 116
-0.561401605606079 -0.351225137710571 2.36200022697449 255 173 152
-1.023801445961 -0.351373434066772 2.3270001411438 203 101 86
-1.01879191398621 -0.351817816495895 2.33000016212463 237 104 91
-1.01333439350128 -0.352112054824829 2.33200001716614 241 104 86
-1.00527799129486 -0.351501256227493 2.32800006866455 241 99 82
-0.998962342739105 -0.351495295763016 2.32800006866455 244 102 85
-0.993502080440521 -0.351792097091675 2.33000016212463 243 100 81
-0.98760974407196 -0.351938754320145 2.33100008964539 249 103 85
-0.979609549045563 -0.351331323385239 2.3270001411438 241 95 77
-0.971633613109589 -0.350724786520004 2.32300019264221 247 101 83
-0.96617466211319 -0.351024836301804 2.32500004768372 247 105 82
-0.960707247257233 -0.351325660943985 2.3270001411438 246 103 82
-0.955641150474548 -0.351778209209442 2.33000016212463 250 107 86
-0.950968444347382 -0.35238254070282 2.33400011062622 241 99 76
-0.94384753704071 -0.352081716060638 2.33200001716614 247 105 82
-0.937141239643097 -0.351932555437088 2.33100008964539 247 102 81
-0.92964369058609 -0.351482212543488 2.32800006866455 255 109 91
-0.923353970050812 -0.351485431194305 2.32800006866455 249 103 85
-0.916671931743622 -0.351338416337967 2.3270001411438 253 107 90
-0.911170482635498 -0.351644933223724 2.3289999961853 251 108 89
-0.904882848262787 -0.351650208234787 2.3289999961853 254 111 90
-0.899368345737457 -0.351958096027374 2.33100008964539 251 111 86
-0.893077969551086 -0.351964622735977 2.33100008964539 249 109 84
-0.887169480323792 -0.352122783660889 2.33200001716614 255 117 90
-0.880123794078827 -0.351828575134277 2.33000016212463 255 117 90
-0.874214947223663 -0.35198786854744 2.33100008964539 248 110 85
-0.869046688079834 -0.352449864149094 2.33400011062622 255 114 93
-0.863123893737793 -0.352610349655151 2.33500003814697 251 112 91
-0.85756379365921 -0.35292249917984 2.33700013160706 252 115 96
-0.85199385881424 -0.353235185146332 2.33900022506714 254 117 98
-0.845690846443176 -0.353246361017227 2.33900022506714 254 115 96
-0.839029788970947 -0.35310697555542 2.33800005912781 254 115 96
-0.832018852233887 -0.352817118167877 2.3360002040863 251 112 91
-0.826079785823822 -0.352980822324753 2.33700013160706 255 116 95
-0.819785118103027 -0.352993994951248 2.33700013160706 250 112 89
-0.814187407493591 -0.353309750556946 2.33900022506714 252 117 91
-0.808924734592438 -0.353777021169662 2.34200000762939 255 122 95
-0.802275657653809 -0.353640496730804 2.34100008010864 255 124 97
-0.795632481575012 -0.353504478931427 2.34000015258789 255 124 94
-0.788995087146759 -0.353368818759918 2.33900022506714 255 130 100
-0.783032596111298 -0.353535681962967 2.34000015258789 255 149 102
-0.769775450229645 -0.353266358375549 2.33800005912781 255 252 135
-0.763155341148376 -0.353132277727127 2.33700013160706 255 255 128
-0.757512450218201 -0.35345184803009 2.33900022506714 255 255 108
-0.751537621021271 -0.353620707988739 2.34000015258789 255 255 106
-0.745557546615601 -0.353789865970612 2.34100008010864 255 255 117
-0.737993240356445 -0.353203773498535 2.33700013160706 255 255 108
-0.731702923774719 -0.353222489356995 2.33700013160706 255 255 107
-0.72634357213974 -0.353694975376129 2.34000015258789 255 255 110
-0.721275866031647 -0.354318916797638 2.34400010108948 255 255 113
-0.71649158000946 -0.355094432830811 2.3490002155304 255 255 111
-0.710168421268463 -0.355114430189133 2.3490002155304 255 255 110
-0.703845202922821 -0.355134665966034 2.3490002155304 255 255 109
-0.697521686553955 -0.355155169963837 2.3490002155304 255 255 108
-0.690609514713287 -0.354873538017273 2.34700012207031 255 255 105
-0.683999240398407 -0.354743301868439 2.34600019454956 255 255 109
-0.677105247974396 -0.354462057352066 2.34400010108948 255 255 110
-0.670793950557709 -0.354483395814896 2.34400010108948 255 255 114
-0.664198994636536 -0.354353785514832 2.34300017356873 255 255 111
-0.657608807086945 -0.354224294424057 2.34200000762939 255 255 126
-0.651579856872559 -0.354397505521774 2.34300017356873 255 255 122
-0.645544946193695 -0.354570895433426 2.34400010108948 255 255 121
-0.638958752155304 -0.354441910982132 2.34300017356873 255 255 126
-0.632917523384094 -0.354615658521652 2.34400010108948 255 255 120
-0.626602947711945 -0.354638278484344 2.34400010108948 255 255 104
-0.621081709861755 -0.355114907026291 2.34700012207031 255 255 114
-0.61475795507431 -0.355137765407562 2.34700012207031 255 240 124
-0.608433544635773 -0.355160742998123 2.34700012207031 229 146 74
-0.602364957332611 -0.355335175991058 2.34800004959106 255 136 113
-0.594767272472382 -0.354601681232452 2.34300017356873 255 137 114
-0.588451623916626 -0.354624897241592 2.34300017356873 255 136 113
-0.581886768341064 -0.354496836662292 2.34200000762939 255 142 119
-0.576801121234894 -0.35527703166008 2.34700012207031 255 133 113
-0.570958733558655 -0.35560330748558 2.3490002155304 255 141 117
-0.565825700759888 -0.356383800506592 2.35400009155273 255 165 152
-1.01985096931458 -0.356289654970169 2.31800007820129 227 101 87
-1.01486504077911 -0.35674175620079 2.32100009918213 241 106 88
-1.00986564159393 -0.357194721698761 2.32400012016296 240 101 82
-1.00139808654785 -0.356418967247009 2.31900000572205 242 101 82
-0.996393322944641 -0.356873661279678 2.32200002670288 239 98 79
-0.988816559314728 -0.356407135725021 2.31900000572205 244 101 82
-0.984224379062653 -0.35701721906662 2.32300019264221 246 103 84
-0.976244986057281 -0.356398612260818 2.31900000572205 244 98 80
-0.970381200313568 -0.356549352407455 2.32000017166138 245 99 81
-0.964098513126373 -0.356547087430954 2.32000017166138 247 104 83
-0.958231031894684 -0.356699377298355 2.32100009918213 243 100 79
-0.952770292758942 -0.357006102800369 2.32300019264221 246 103 82
-0.948115646839142 -0.357620924711227 2.3270001411438 249 104 82
-0.941417872905731 -0.357468158006668 2.32600021362305 253 111 88
-0.934324979782104 -0.357162326574326 2.32400012016296 247 102 81
-0.92724484205246 -0.356857270002365 2.32200002670288 248 105 84
-0.921367347240448 -0.357014030218124 2.32300019264221 253 110 91
-0.914304137229919 -0.356710344552994 2.32100009918213 248 105 86
-0.908427059650421 -0.356868416070938 2.32200002670288 242 101 80
-0.902546226978302 -0.357027173042297 2.32300019264221 244 104 81
-0.896661400794983 -0.357186615467072 2.32400012016296 248 110 85
-0.890772461891174 -0.357346683740616 2.32500004768372 244 107 80
-0.885259926319122 -0.357661038637161 2.3270001411438 249 112 85
-0.880115807056427 -0.35812982916832 2.33000016212463 255 119 94
-0.873456299304962 -0.357984304428101 2.3289999961853 247 109 84
-0.866803526878357 -0.357839435338974 2.32800006866455 250 109 90
-0.860157072544098 -0.357695132493973 2.3270001411438 251 110 91
-0.854617893695831 -0.358012497425079 2.3289999961853 247 108 90
-0.849433183670044 -0.358484208583832 2.33200001716614 253 114 96
-0.842063844203949 -0.35803410410881 2.3289999961853 255 116 97
-0.835429251194 -0.357891947031021 2.32800006866455 255 116 97
-0.827732384204865 -0.357289105653763 2.32400012016296 249 110 91
-0.822885572910309 -0.357916653156281 2.32800006866455 255 119 98
-0.816965460777283 -0.358083486557007 2.3289999961853 255 117 94
-0.811736881732941 -0.358558356761932 2.33200001716614 251 115 92
-0.805801808834076 -0.358726173639297 2.33300018310547 255 120 94
-0.800204575061798 -0.359048217535019 2.33500003814697 253 120 94
-0.793577134609222 -0.358909457921982 2.33400011062622 255 124 97
-0.786955535411835 -0.358771085739136 2.33300018310547 255 131 103
-0.780339539051056 -0.358633100986481 2.33200001716614 252 128 94
-0.767124772071838 -0.358358353376389 2.33000016212463 255 255 123
-0.760199189186096 -0.358067721128464 2.32800006866455 255 255 116
-0.754903972148895 -0.358546525239944 2.33100008964539 255 255 115
-0.749592661857605 -0.359025746583939 2.33400011062622 255 255 111
-0.74330997467041 -0.35904386639595 2.33400011062622 255 255 113
-0.7360799908638 -0.358600795269012 2.33100008964539 255 255 112
-0.72949230670929 -0.358465701341629 2.33000016212463 255 255 113
-0.72384113073349 -0.35879248380661 2.33200001716614 255 255 108
-0.718794643878937 -0.359427332878113 2.3360002040863 255 255 111
-0.714031457901001 -0.360216408967972 2.34100008010864 255 255 112
-0.70833432674408 -0.360544264316559 2.34300017356873 255 255 107
-0.701427757740021 -0.36025682091713 2.34100008010864 255 255 104
-0.694828569889069 -0.360123485326767 2.34000015258789 255 255 105
-0.688234686851501 -0.359990417957306 2.33900022506714 255 255 106
-0.681937277317047 -0.360011488199234 2.33900022506714 255 255 110
-0.675350725650787 -0.359878778457642 2.33800005912781 255 255 114
-0.668483138084412 -0.359592437744141 2.3360002040863 255 255 114
-0.66219288110733 -0.359614133834839 2.3360002040863 255 255 114
-0.655340671539307 -0.359328091144562 2.33400011062622 255 255 119
-0.649333000183105 -0.359504073858261 2.33500003814697 255 255 119
-0.643044054508209 -0.359526306390762 2.33500003814697 255 255 122
-0.636481940746307 -0.359394729137421 2.33400011062622 255 255 125
-0.629924833774567 -0.359263300895691 2.33300018310547 255 255 128
-0.623907029628754 -0.359439969062805 2.33400011062622 255 255 103
-0.618677198886871 -0.36007884144783 2.33800005912781 255 255 114
-0.612901449203491 -0.360409885644913 2.34000015258789 255 255 127
-0.606077313423157 -0.360124915838242 2.33800005912781 255 235 119
-0.599776387214661 -0.360148131847382 2.33800005912781 247 133 98
-0.59296715259552 -0.35986340045929 2.3360002040863 255 143 116
-0.586670279502869 -0.359886795282364 2.3360002040863 255 138 114
-0.580124199390411 -0.359756112098694 2.33500003814697 255 133 110
-0.575303137302399 -0.360704094171524 2.34100008010864 255 135 112
-0.569719851016998 -0.361190021038055 2.34400010108948 242 134 112
-1.02350616455078 -0.361637145280838 2.31200003623962 213 92 75
-1.01634109020233 -0.361313939094543 2.31000018119812 241 100 89
-1.00962662696838 -0.361148029565811 2.30900001525879 242 100 85
-1.00509357452393 -0.361765146255493 2.31300020217896 236 94 77
-0.999246120452881 -0.361913919448853 2.31400012969971 241 102 83
-0.993395805358887 -0.362063556909561 2.31500005722046 241 102 81
-0.985837042331696 -0.361588448286057 2.31200003623962 241 100 79
-0.98041558265686 -0.361896187067032 2.31400012969971 243 102 81
-0.973722815513611 -0.361735671758652 2.31300020217896 242 102 79
-0.967874348163605 -0.36188867688179 2.31400012969971 248 107 86
-0.960775971412659 -0.361573368310928 2.31200003623962 248 105 84
-0.954516410827637 -0.361571609973907 2.31200003623962 245 102 81
-0.949489533901215 -0.362039804458618 2.31500005722046 250 105 84
-0.943633556365967 -0.362196087837219 2.31600022315979 254 109 88
-0.937369406223297 -0.362196683883667 2.31600022315979 249 103 85
-0.929900825023651 -0.361728817224503 2.31300020217896 245 102 81
-0.924047708511353 -0.361887276172638 2.31400012969971 250 107 86
-0.917794406414032 -0.36189004778862 2.31400012969971 254 112 89
-0.910754919052124 -0.361580729484558 2.31200003623962 249 109 86
-0.904901504516602 -0.361741334199905 2.31300020217896 251 111 86
-0.89982134103775 -0.362215369939804 2.31600022315979 248 108 83
-0.893954694271088 -0.362377285957336 2.31700015068054 249 111 86
-0.886934578418732 -0.362070649862289 2.31500005722046 252 114 89
-0.881828844547272 -0.362546682357788 2.31800007820129 248 111 84
-0.877085983753204 -0.363179743289948 2.32200002670288 251 113 88
-0.87044757604599 -0.363031417131424 2.32100009918213 250 112 89
-0.863071024417877 -0.362570852041245 2.31800007820129 252 111 92
-0.856451094150543 -0.362423688173294 2.31700015068054 250 109 90
-0.850938260555267 -0.362746328115463 2.31900000572205 247 105 88
-0.845415651798248 -0.36306956410408 2.32100009918213 255 116 99
-0.839160144329071 -0.363080561161041 2.32100009918213 250 111 92
-0.832546591758728 -0.362935572862625 2.32000017166138 248 109 88
-0.824870824813843 -0.362321853637695 2.31600022315979 255 118 97
-0.819338083267212 -0.362647205591202 2.31800007820129 255 118 97
-0.813444375991821 -0.362816691398621 2.31900000572205 246 108 85
-0.807894229888916 -0.363143116235733 2.32100009918213 255 119 96
-0.80233359336853 -0.363470017910004 2.32300019264221 253 117 94
-0.797105669975281 -0.363953948020935 2.32600021362305 255 119 96
-0.790841996669769 -0.363968878984451 2.32600021362305 254 120 98
-0.784578740596771 -0.363984227180481 2.32600021362305 251 119 93
-0.777981162071228 -0.363843500614166 2.32500004768372 255 126 96
-0.771389484405518 -0.36370325088501 2.32400012016296 240 119 82
-0.764144897460938 -0.363250344991684 2.32100009918213 255 232 109
-0.75756973028183 -0.363110780715942 2.32000017166138 255 255 115
-0.751971781253815 -0.363441169261932 2.32200002670288 255 255 111
-0.74636322259903 -0.363771975040436 2.32400012016296 255 255 109
-0.740106999874115 -0.363790065050125 2.32400012016296 255 255 112
-0.733850955963135 -0.363808542490005 2.32400012016296 255 255 114
-0.727281868457794 -0.363670825958252 2.32300019264221 255 255 107
-0.721338748931885 -0.363846391439438 2.32400012016296 255 255 108
-0.715698182582855 -0.364179015159607 2.32600021362305 255 255 99
-0.710351467132568 -0.36466845870018 2.3289999961853 255 255 98
-0.704988598823547 -0.365158259868622 2.33200001716614 255 255 108
-0.698410987854004 -0.365022033452988 2.33100008964539 255 255 109
-0.692135512828827 -0.36504265666008 2.33100008964539 255 255 107
-0.685859680175781 -0.365063548088074 2.33100008964539 255 255 109
-0.679583668708801 -0.365084677934647 2.33100008964539 255 255 109
-0.673596143722534 -0.365262657403946 2.33200001716614 255 255 109
-0.666458368301392 -0.364814311265945 2.3289999961853 255 255 111
-0.66018670797348 -0.364836066961288 2.3289999961853 255 255 112
-0.653353214263916 -0.364544779062271 2.3270001411438 255 255 113
-0.64736419916153 -0.364723533391953 2.32800006866455 255 255 116
-0.641093969345093 -0.364745885133743 2.32800006866455 255 255 119
-0.63455057144165 -0.364611715078354 2.3270001411438 255 255 126
-0.628012180328369 -0.364477694034576 2.32600021362305 255 255 123
-0.621745824813843 -0.364500492811203 2.32600021362305 255 255 119
-0.617066562175751 -0.365463674068451 2.33200001716614 255 255 118
-0.611044883728027 -0.365643560886383 2.33300018310547 255 255 116
-0.605017125606537 -0.365823537111282 2.33400011062622 255 255 122
-0.591674506664276 -0.36540013551712 2.33100008964539 227 135 76
-0.585642158985138 -0.365580350160599 2.33200001716614 255 142 107
-0.57910692691803 -0.365447252988815 2.33100008964539 255 138 105
-0.574050724506378 -0.366254866123199 2.3360002040863 255 137 114
-1.03337001800537 -0.369182080030441 2.32000017166138 206 104 96
-1.02396011352539 -0.368056327104568 2.31300020217896 224 106 91
-1.01679110527039 -0.367727160453796 2.31100010871887 239 100 89
-1.00963592529297 -0.367399007081985 2.30900001525879 241 102 84
-1.00510191917419 -0.368026435375214 2.31300020217896 236 98 75
-0.998389720916748 -0.367859214544296 2.31200003623962 237 101 79
-0.99168586730957 -0.367692947387695 2.31100010871887 242 100 83
-0.983284175395966 -0.366891115903854 2.30599999427795 247 105 82
-0.97703093290329 -0.366885751485825 2.30599999427795 241 101 78
-0.971200883388519 -0.367040306329727 2.30700016021729 244 108 86
-0.966204285621643 -0.36751389503479 2.31000018119812 243 104 83
-0.959531545639038 -0.367351889610291 2.30900001525879 240 99 78
-0.95204085111618 -0.366872549057007 2.30599999427795 242 99 78
-0.946619153022766 -0.367189466953278 2.30800008773804 250 105 84
-0.941188752651215 -0.367507189512253 2.31000018119812 245 100 79
-0.935344755649567 -0.367666572332382 2.31100010871887 247 104 85
-0.928291082382202 -0.367349475622177 2.30900001525879 241 98 77
-0.92164945602417 -0.367192149162292 2.30800008773804 251 108 87
-0.916204869747162 -0.367512881755829 2.31000018119812 255 116 95
-0.909175515174866 -0.367197930812836 2.30800008773804 251 111 88
-0.902158498764038 -0.366883665323257 2.30599999427795 247 110 83
-0.896319508552551 -0.367047429084778 2.30700016021729 246 109 82
-0.890862226486206 -0.367370903491974 2.30900001525879 251 114 87
-0.884629428386688 -0.367376893758774 2.30900001525879 249 112 85
-0.879539310932159 -0.367860853672028 2.31200003623962 246 109 80
-0.873678863048553 -0.36802726984024 2.31300020217896 248 111 84
-0.866688966751099 -0.367716908454895 2.31100010871887 251 113 90
-0.858966588973999 -0.367088943719864 2.30700016021729 243 104 83
-0.852745234966278 -0.367098033428192 2.30700016021729 247 108 87
-0.847992718219757 -0.367744207382202 2.31100010871887 253 114 93
-0.842491149902344 -0.368072748184204 2.31300020217896 244 105 84
-0.836979627609253 -0.368401855230331 2.31500005722046 248 107 86
-0.830381751060486 -0.368254065513611 2.31400012969971 249 108 87
-0.823433876037598 -0.367947697639465 2.31200003623962 251 110 91
-0.817911386489868 -0.368278414011002 2.31400012969971 255 118 99
-0.81167733669281 -0.368291348218918 2.31400012969971 254 115 94
-0.805791974067688 -0.368463933467865 2.31500005722046 253 114 93
-0.799210965633392 -0.368318676948547 2.31400012969971 252 116 94
-0.794006764888763 -0.368810623884201 2.31700015068054 249 113 90
-0.787426888942719 -0.3686663210392 2.31600022315979 250 114 91
-0.780852794647217 -0.368522435426712 2.31500005722046 252 119 93
-0.774284541606903 -0.36837899684906 2.31400012969971 253 121 94
-0.768717765808105 -0.368713557720184 2.31600022315979 252 128 95
-0.761823534965515 -0.368411719799042 2.31400012969971 246 132 85
-0.755593299865723 -0.368428647518158 2.31400012969971 255 234 132
-0.749687254428864 -0.368605196475983 2.31500005722046 255 255 106
-0.744418323040009 -0.369100660085678 2.31800007820129 255 255 105
-0.738496422767639 -0.369277983903885 2.31900000572205 254 255 103
-0.732569217681885 -0.369455754756927 2.32000017166138 255 255 115
-0.72663676738739 -0.369633853435516 2.32100009918213 255 255 106
-0.720388293266296 -0.369652986526489 2.32100009918213 255 255 106
-0.713832318782806 -0.369513243436813 2.32000017166138 255 255 107
-0.707586586475372 -0.369533032178879 2.32000017166138 255 255 103
-0.701643049716949 -0.369712352752686 2.32100009918213 255 255 104
-0.69509482383728 -0.369573473930359 2.32000017166138 255 255 107
-0.688848674297333 -0.369594097137451 2.32000017166138 255 255 109
-0.682896435260773 -0.369774281978607 2.32100009918213 255 255 116
-0.6772301197052 -0.370114117860794 2.32300019264221 255 255 107
-0.670397341251373 -0.369816839694977 2.32100009918213 255 255 106
-0.663575112819672 -0.369519740343094 2.31900000572205 255 255 107
-0.65733015537262 -0.369541585445404 2.31900000572205 255 255 113
-0.651365756988525 -0.3697230219841 2.32000017166138 255 255 114
-0.645951628684998 -0.370223373174667 2.32300019264221 255 255 112
-0.639419257640839 -0.370086431503296 2.32200002670288 254 255 114
-0.632619202136993 -0.369790256023407 2.32000017166138 255 255 118
-0.62636935710907 -0.369812995195389 2.32000017166138 255 255 110
-0.620653629302979 -0.370154708623886 2.32200002670288 255 255 114
-0.615191221237183 -0.370656043291092 2.32500004768372 255 255 114
-0.60892641544342 -0.370679289102554 2.32500004768372 255 255 109
-0.602660894393921 -0.370702654123306 2.32500004768372 255 255 112
-0.596394836902618 -0.370726108551025 2.32500004768372 255 255 129
-0.583860576152802 -0.370773315429688 2.32500004768372 252 138 93
-0.578089475631714 -0.371116071939468 2.3270001411438 253 137 103
-0.573535442352295 -0.372256338596344 2.33400011062622 247 132 112
-1.00142049789429 -0.375250369310379 2.31900000572205 187 94 99
-0.992551028728485 -0.374271869659424 2.31300020217896 220 104 107
-0.984569430351257 -0.373617857694626 2.30900001525879 224 102 102
-0.977459847927094 -0.373288512229919 2.30700016021729 226 106 99
-0.972889065742493 -0.373930722475052 2.31100010871887 234 112 98
-0.967044353485107 -0.37408846616745 2.31200003623962 228 98 90
-0.958287477493286 -0.373114377260208 2.30599999427795 238 100 87
-0.949152708053589 -0.371979355812073 2.29900002479553 239 102 84
-0.942518830299377 -0.371816009283066 2.29800009727478 242 104 81
-0.937522113323212 -0.372300624847412 2.30100011825562 246 106 83
-0.930892169475555 -0.372138798236847 2.30000019073486 239 92 75
-0.924269497394562 -0.371977746486664 2.29900002479553 246 103 84
-0.918053448200226 -0.371979236602783 2.29900002479553 247 106 85
-0.912235975265503 -0.372143357992172 2.30000019073486 251 110 89
-0.905626773834229 -0.371984511613846 2.29900002479553 249 111 88
-0.899415850639343 -0.371988207101822 2.29900002479553 243 105 80
-0.893206417560577 -0.371992617845535 2.29900002479553 245 107 82
-0.887770295143127 -0.372321307659149 2.30100011825562 246 108 83
-0.882707715034485 -0.372812539339066 2.30400013923645 251 114 87
-0.876869440078735 -0.372980743646622 2.3050000667572 242 105 78
-0.870649516582489 -0.372987806797028 2.3050000667572 250 112 87
-0.862930655479431 -0.37234827876091 2.30100011825562 245 107 84
-0.855606853961945 -0.371871143579483 2.29800009727478 247 108 87
-0.849409222602844 -0.371880024671555 2.29800009727478 247 108 87
-0.845414280891418 -0.372860550880432 2.30400013923645 250 111 90
-0.840295255184174 -0.373356193304062 2.30700016021729 254 115 94
-0.834437847137451 -0.373528718948364 2.30800008773804 254 113 92
-0.82714056968689 -0.373054414987564 2.3050000667572 246 105 84
-0.8205726146698 -0.372904360294342 2.30400013923645 249 108 89
-0.815071105957031 -0.373240351676941 2.30599999427795 249 108 89
-0.809910297393799 -0.373738765716553 2.30900001525879 253 114 93
-0.80368983745575 -0.373752117156982 2.30900001525879 253 114 93
-0.797815442085266 -0.373927891254425 2.31000018119812 255 118 97
-0.791936039924622 -0.374104082584381 2.31100010871887 253 117 95
-0.78469181060791 -0.3736332654953 2.30800008773804 255 120 97
-0.778138935565948 -0.37348660826683 2.30700016021729 253 120 94
-0.772595524787903 -0.373826056718826 2.30900001525879 252 120 93
-0.767705678939819 -0.37448987364769 2.31300020217896 248 124 91
-0.7611483335495 -0.374344497919083 2.31200003623962 255 134 101
-0.754270076751709 -0.374037623405457 2.31000018119812 249 139 87
-0.748050630092621 -0.374054968357086 2.31000018119812 255 255 128
-0.742152392864227 -0.374234616756439 2.31100010871887 255 255 106
-0.735930562019348 -0.374252736568451 2.31100010871887 255 255 105
-0.729708731174469 -0.374271214008331 2.31100010871887 255 255 109
-0.723173975944519 -0.374128103256226 2.31000018119812 255 255 105
-0.717575669288635 -0.374471187591553 2.31200003623962 255 255 110
-0.71073591709137 -0.374166756868362 2.31000018119812 255 255 111
-0.704821765422821 -0.374348491430283 2.31100010871887 255 255 109
-0.698902130126953 -0.374530524015427 2.31200003623962 255 255 106
-0.693276584148407 -0.374874949455261 2.31400012969971 255 255 107
-0.687343180179596 -0.375057637691498 2.31500005722046 255 255 107
-0.681110024452209 -0.375078588724136 2.31500005722046 255 255 106
-0.675168037414551 -0.375261843204498 2.31600022315979 255 255 107
-0.668354094028473 -0.374959260225296 2.31400012969971 255 255 107
-0.662122666835785 -0.374980926513672 2.31400012969971 255 255 109
-0.655040740966797 -0.374516665935516 2.31100010871887 255 255 112
-0.649097561836243 -0.374700784683228 2.31200003623962 255 255 114
-0.6431485414505 -0.374885201454163 2.31300020217896 255 255 114
-0.637469053268433 -0.375231862068176 2.31500005722046 255 255 111
-0.631233096122742 -0.375254541635513 2.31500005722046 255 255 116
-0.624726593494415 -0.375115275382996 2.31400012969971 255 255 117
-0.619026899337769 -0.375462532043457 2.31600022315979 255 255 117
-0.613051235675812 -0.375647842884064 2.31700015068054 255 255 115
-0.607069671154022 -0.37583327293396 2.31800007820129 255 255 119
-0.600563764572144 -0.37569460272789 2.31700015068054 255 255 119
-0.594832181930542 -0.376042455434799 2.31900000572205 255 255 134
-0.588581442832947 -0.376066118478775 2.31900000572205 255 255 152
-0.582330167293549 -0.37608990073204 2.31900000572205 250 153 105
-0.576575040817261 -0.376438170671463 2.32100009918213 252 137 106
-0.571791350841522 -0.377435326576233 2.3270001411438 255 171 160
-0.970812737941742 -0.381825655698776 2.32100009918213 155 50 56
-0.961199641227722 -0.380505949258804 2.31300020217896 191 75 78
-0.95245772600174 -0.379516094923019 2.30700016021729 218 102 95
-0.943750560283661 -0.378527134656906 2.30100011825562 236 111 91
-0.937930047512054 -0.378690540790558 2.30200004577637 236 104 86
-0.930891931056976 -0.378361165523529 2.30000019073486 236 98 85
-0.9246706366539 -0.378361642360687 2.30000019073486 241 103 88
-0.917652428150177 -0.378033846616745 2.29800009727478 241 104 85
-0.910250306129456 -0.377542316913605 2.29500007629395 244 105 86
-0.903653979301453 -0.377380549907684 2.29400014877319 248 107 88
-0.897455811500549 -0.377383977174759 2.29400014877319 246 103 84
