1.05666041374207 -0.390636950731277 2.42400002479553 255 90 85
1.06369125843048 -0.390809834003448 2.42500019073486 253 87 82
1.06940639019012 -0.390500217676163 2.42300009727478 252 89 82
1.07555818557739 -0.390352725982666 2.42200016975403 247 81 75
1.08215475082397 -0.390367537736893 2.42200016975403 255 91 86
1.08875465393066 -0.390383362770081 2.42200016975403 241 73 68
1.09490573406219 -0.390239059925079 2.4210000038147 242 76 73
1.1037849187851 -0.391063004732132 2.42600011825562 244 78 75
1.1117799282074 -0.391565769910812 2.42900013923645 252 89 86
1.11749279499054 -0.391263633966446 2.42700004577637 248 88 82
1.12319898605347 -0.390962600708008 2.42500019073486 250 90 81
1.13122749328613 -0.391468852758408 2.4280002117157 245 83 74
1.13833940029144 -0.39165386557579 2.42900013923645 242 82 75
1.1449898481369 -0.391678839921951 2.42900013923645 242 89 81
1.14927399158478 -0.390898704528809 2.42400002479553 236 80 73
1.15639662742615 -0.391087412834167 2.42500019073486 240 84 68
1.16304957866669 -0.391115993261337 2.42500019073486 223 70 50
1.17211925983429 -0.39195242524147 2.4300000667572 243 96 70
1.17879545688629 -0.39198362827301 2.4300000667572 219 77 44
1.18694055080414 -0.392500191926956 2.43300008773804 207 97 47
1.19167292118073 -0.391888827085495 2.42900013923645 209 121 62
1.21645557880402 -0.39139249920845 2.42500019073486 255 234 119
1.2236602306366 -0.391594648361206 2.42600011825562 255 241 102
1.23290526866913 -0.3924440741539 2.43100023269653 255 245 104
1.24014389514923 -0.392649292945862 2.43200016021729 255 249 98
1.25207960605621 -0.392256945371628 2.42900013923645 220 86 63
1.25985860824585 -0.392628222703934 2.43100023269653 227 82 71
1.26817619800568 -0.39316263794899 2.43400001525879 218 100 93
1.26866030693054 -0.391275584697723 2.42200016975403 194 104 98
0.915382325649261 -0.395679175853729 2.41500020027161 227 92 98
0.919613838195801 -0.39469039440155 2.40900015830994 255 101 105
0.926505565643311 -0.394849270582199 2.41000008583069 255 98 95
0.932242691516876 -0.394517332315445 2.40800023078918 255 95 92
0.938360512256622 -0.394349962472916 2.40700006484985 255 101 98
0.946044623851776 -0.394838660955429 2.41000008583069 255 103 100
0.951770663261414 -0.394509017467499 2.40800023078918 255 94 93
0.959079384803772 -0.394835412502289 2.41000008583069 255 92 93
0.965599477291107 -0.394834935665131 2.41000008583069 255 92 93
0.971314907073975 -0.394507616758347 2.40800023078918 254 89 90
0.975397050380707 -0.393525719642639 2.40200018882751 255 89 90
0.98231041431427 -0.393691569566727 2.40300011634827 255 88 89
0.990465939044952 -0.394349753856659 2.40700006484985 255 93 92
0.997402727603912 -0.3945172727108 2.40800023078918 249 80 79
1.00267970561981 -0.39403036236763 2.40500020980835 255 84 82
1.00920164585114 -0.394035786390305 2.40500020980835 254 83 81
1.01783776283264 -0.394861370325089 2.41000008583069 251 81 76
1.02480340003967 -0.395032495260239 2.41100001335144 255 86 81
1.03348851203918 -0.395860016345978 2.41600012779236 255 88 86
1.04048132896423 -0.396033078432083 2.41700005531311 252 81 79
1.04748260974884 -0.39620715379715 2.41800022125244 248 79 77
1.05274856090546 -0.395726770162582 2.41500020027161 255 88 86
1.05843997001648 -0.395411252975464 2.41300010681152 254 88 83
1.06500637531281 -0.395424485206604 2.41300010681152 255 90 84
1.07201993465424 -0.39560255408287 2.41400003433228 250 85 76
1.07904267311096 -0.395781844854355 2.41500020027161 248 83 74
1.08607411384583 -0.395962089300156 2.41600012779236 252 87 78
1.09130549430847 -0.395487874746323 2.41300010681152 252 89 82
1.09879910945892 -0.395834296941757 2.41500020027161 250 87 80
1.10630738735199 -0.396181851625443 2.41700005531311 252 92 86
1.11290943622589 -0.396202713251114 2.41700005531311 247 92 82
1.11905264854431 -0.396060883998871 2.41600012779236 245 94 74
1.12612581253052 -0.396247982978821 2.41700005531311 241 94 68
1.13414621353149 -0.396764308214188 2.42000007629395 255 118 89
1.14030182361603 -0.396626025438309 2.41900014877319 255 120 88
1.1445597410202 -0.395833045244217 2.41400003433228 255 156 113
1.16877365112305 -0.397397249937058 2.42300009727478 255 238 136
1.17591714859009 -0.397593349218369 2.42400002479553 255 244 143
1.18404710292816 -0.398118942975998 2.42700004577637 255 249 116
1.18729245662689 -0.397005409002304 2.42000007629395 255 242 94
1.19247794151306 -0.396549254655838 2.41700005531311 255 241 92
1.19666004180908 -0.395766288042068 2.41200017929077 255 242 97
1.20231676101685 -0.395476818084717 2.41000008583069 255 242 85
1.21147978305817 -0.396337598562241 2.41500020027161 255 244 80
1.21916258335114 -0.396707475185394 2.41700005531311 255 243 83
1.2258483171463 -0.396750658750534 2.41700005531311 255 243 85
1.23253989219666 -0.396795392036438 2.41700005531311 255 241 77
1.238725066185 -0.39667734503746 2.41600012779236 255 237 85
1.24748826026917 -0.397381842136383 2.42000007629395 215 98 53
1.25368905067444 -0.397266954183578 2.41900014877319 222 76 59
1.26249611377716 -0.397974848747253 2.42300009727478 223 78 67
1.2692369222641 -0.398027420043945 2.42300009727478 219 81 76
1.27229821681976 -0.396931529045105 2.41600012779236 188 98 90
0.910736858844757 -0.403050631284714 2.42000007629395 228 101 113
0.911585986614227 -0.400546282529831 2.40500020980835 255 95 104
0.916554629802704 -0.399874627590179 2.40100002288818 254 89 94
0.923425614833832 -0.400036513805389 2.40200018882751 255 100 101
0.929141700267792 -0.399699360132217 2.40000009536743 255 96 97
0.935238778591156 -0.399529665708542 2.39900016784668 255 91 90
0.942509472370148 -0.399860173463821 2.40100002288818 251 86 85
0.947816491127014 -0.399358838796616 2.39800000190735 253 88 89
0.954701066017151 -0.399524450302124 2.39900016784668 255 96 97
0.959990203380585 -0.399024665355682 2.39600014686584 255 88 87
0.966475367546082 -0.39902538061142 2.39600014686584 255 92 91
0.971744179725647 -0.398527264595032 2.39300012588501 255 91 90
0.980269014835358 -0.39936226606369 2.39800000190735 255 95 93
0.988823294639587 -0.400198221206665 2.40300011634827 255 86 84
0.994921863079071 -0.400035798549652 2.40200018882751 255 89 87
0.998932659626007 -0.399041503667831 2.39600014686584 255 88 86
1.00459182262421 -0.398714274168015 2.39400005340576 255 84 82
1.01319921016693 -0.399553835391998 2.39900016784668 255 86 84
1.02141106128693 -0.400227755308151 2.40300011634827 255 87 85
1.02921974658966 -0.400736153125763 2.4060001373291 249 78 76
1.03575599193573 -0.400745838880539 2.4060001373291 253 82 80
1.04272830486298 -0.400923073291779 2.40700006484985 248 77 75
1.04840135574341 -0.400601655244827 2.40500020980835 255 86 84
1.05494379997253 -0.400614380836487 2.40500020980835 248 79 77
1.06148946285248 -0.40062814950943 2.40500020980835 254 88 83
1.06803822517395 -0.400642901659012 2.40500020980835 248 82 76
1.07548439502716 -0.400991976261139 2.40700006484985 251 89 78
1.08384370803833 -0.401675373315811 2.41100001335144 252 90 79
1.08906245231628 -0.401193708181381 2.40800023078918 255 92 83
1.09517848491669 -0.401046246290207 2.40700006484985 249 86 77
1.10129296779633 -0.40090000629425 2.4060001373291 247 82 81
1.10878729820251 -0.401254802942276 2.40800023078918 246 89 79
1.11444354057312 -0.400944203138351 2.4060001373291 255 233 148
1.12102496623993 -0.400968104600906 2.4060001373291 255 247 129
1.1280791759491 -0.401159852743149 2.40700006484985 255 250 80
1.13420033454895 -0.401019543409348 2.4060001373291 255 249 81
1.13937211036682 -0.400547057390213 2.40300011634827 255 248 88
1.14691650867462 -0.400909274816513 2.40500020980835 255 249 89
1.1539968252182 -0.401106119155884 2.4060001373291 255 247 90
1.16398179531097 -0.402304649353027 2.41300010681152 255 249 92
1.17206954956055 -0.402837693691254 2.41600012779236 255 246 88
1.18066656589508 -0.403539001941681 2.42000007629395 255 248 71
1.18340337276459 -0.402240604162216 2.41200017929077 255 247 70
1.18708789348602 -0.401276856660843 2.4060001373291 255 245 78
1.19074499607086 -0.40031436085701 2.40000009536743 252 242 78
1.19886445999146 -0.400854378938675 2.40300011634827 255 245 81
1.20750784873962 -0.401562809944153 2.40700006484985 255 247 84
1.21567463874817 -0.402105957269669 2.41000008583069 255 246 79
1.22031366825104 -0.401482701301575 2.4060001373291 255 245 78
1.22595632076263 -0.40119457244873 2.40400004386902 253 244 76
1.23313248157501 -0.401408582925797 2.40500020980835 255 244 77
1.24186706542969 -0.402124971151352 2.40900015830994 255 235 115
1.25063014030457 -0.402843087911606 2.41300010681152 183 81 23
1.25890100002289 -0.403395980596542 2.41600012779236 229 82 65
1.26614785194397 -0.403616666793823 2.41700005531311 229 83 65
1.26866722106934 -0.402335941791534 2.40900015830994 218 77 66
1.27220809459686 -0.40139052271843 2.40300011634827 219 79 72
1.27944815158844 -0.401615977287292 2.40400004386902 217 84 80
1.28830635547638 -0.40234449505806 2.40800023078918 225 106 105
0.903449058532715 -0.40926468372345 2.41800022125244 255 131 142
0.903203666210175 -0.406211465597153 2.40000009536743 246 91 99
0.90741091966629 -0.405190080404282 2.39400005340576 255 95 100
0.913495898246765 -0.405015647411346 2.39300012588501 255 97 98
0.919576942920685 -0.404841959476471 2.39200019836426 255 97 98
0.92604124546051 -0.404838293790817 2.39200019836426 255 100 101
0.930947601795197 -0.40415832400322 2.38800001144409 255 94 95
0.937404334545136 -0.404156118631363 2.38800001144409 255 88 89
0.943467676639557 -0.403985500335693 2.38700008392334 255 90 91
0.950323164463043 -0.404154092073441 2.38800001144409 255 91 92
0.956785380840302 -0.404154300689697 2.38800001144409 255 90 89
0.963652968406677 -0.404324591159821 2.38900017738342 253 87 84
0.97052800655365 -0.404495716094971 2.39000010490417 255 99 96
0.977819383144379 -0.404836922883987 2.39200019836426 255 93 91
0.984712243080139 -0.405009776353836 2.39300012588501 251 83 78
0.990370213985443 -0.404675751924515 2.39100003242493 255 88 86
0.995602905750275 -0.404173403978348 2.38800001144409 253 85 80
1.00208067893982 -0.404179692268372 2.38800001144409 254 86 81
1.0106725692749 -0.405033230781555 2.39300012588501 253 84 82
1.01801919937134 -0.405380010604858 2.39500021934509 244 75 73
1.02580690383911 -0.405896931886673 2.39800000190735 253 82 80
1.03275310993195 -0.406076461076736 2.39900016784668 253 82 80
1.03884088993073 -0.405918329954147 2.39800000190735 251 80 78
1.0453622341156 -0.405930519104004 2.39800000190735 249 78 76
1.0510094165802 -0.405605226755142 2.39600014686584 249 80 78
1.0575315952301 -0.405619531869888 2.39600014686584 247 81 76
1.06361305713654 -0.405465602874756 2.39500021934509 251 86 77
1.07013916969299 -0.405482053756714 2.39500021934509 253 91 80
1.07891643047333 -0.406346142292023 2.40000009536743 249 87 76
1.08455872535706 -0.406026214361191 2.39800000190735 247 85 74
1.09064865112305 -0.405876725912094 2.3970000743866 250 88 77
1.09719467163086 -0.405897706747055 2.3970000743866 242 77 78
1.10650730133057 -0.406935930252075 2.40300011634827 248 85 82
1.11400413513184 -0.407298117876053 2.40500020980835 211 95 38
1.12058401107788 -0.407322764396667 2.40500020980835 255 249 131
1.12669932842255 -0.407179266214371 2.40400004386902 255 251 76
1.13234210014343 -0.406867623329163 2.40200018882751 255 251 74
1.13845252990723 -0.406726598739624 2.40100002288818 255 247 83
1.14456188678741 -0.406586855649948 2.40000009536743 255 246 82
1.14971125125885 -0.406109511852264 2.3970000743866 255 245 85
1.1577433347702 -0.406650125980377 2.40000009536743 255 248 85
1.16628181934357 -0.407361537218094 2.40400004386902 255 246 82
1.17387163639069 -0.407735556364059 2.4060001373291 254 246 75
1.17902421951294 -0.407263576984406 2.40300011634827 254 245 77
1.18169867992401 -0.40594545006752 2.39500021934509 255 245 77
1.18681514263153 -0.405476033687592 2.39200019836426 254 245 78
1.19441497325897 -0.405855596065521 2.39400005340576 255 246 82
1.20454013347626 -0.4070845246315 2.40100002288818 254 244 80
1.2131963968277 -0.407806426286697 2.40500020980835 250 241 74
1.21731579303741 -0.407003700733185 2.40000009536743 254 245 78
1.22294342517853 -0.406711161136627 2.39800000190735 252 244 73
1.22959160804749 -0.406759321689606 2.39800000190735 254 243 75
1.23779261112213 -0.407317996025085 2.40100002288818 254 235 83
1.25218045711517 -0.407761871814728 2.40300011634827 214 70 45
1.25886881351471 -0.407816618680954 2.40300011634827 228 83 61
1.26451063156128 -0.407533496618271 2.40100002288818 227 80 68
1.27067792415619 -0.407421737909317 2.40000009536743 227 79 71
1.27791142463684 -0.407651245594025 2.40100002288818 219 75 70
1.28569281101227 -0.408052325248718 2.40300011634827 217 76 73
1.2891902923584 -0.407096594572067 2.3970000743866 198 76 76
1.29536509513855 -0.40699166059494 2.39600014686584 204 120 118
0.892233192920685 -0.410646080970764 2.38800001144409 251 98 106
0.897552669048309 -0.410123914480209 2.38500022888184 255 94 99
0.905131280422211 -0.410634130239487 2.38800001144409 255 91 90
0.911964178085327 -0.410801202058792 2.38900017738342 255 97 96
0.91688197851181 -0.410109281539917 2.38500022888184 255 97 96
0.922553718090057 -0.409761905670166 2.38300013542175 254 89 90
0.92665696144104 -0.408727616071701 2.37700009346008 255 94 95
0.933084726333618 -0.408725678920746 2.37700009346008 253 86 87
0.939118981361389 -0.408552706241608 2.37600016593933 255 90 91
0.946343600749969 -0.40889635682106 2.37800002098084 255 93 94
0.953180253505707 -0.40906885266304 2.37900018692017 255 93 92
0.960024237632751 -0.409242182970047 2.38000011444092 255 96 93
0.966875791549683 -0.409416407346725 2.38100004196167 255 90 88
0.973734855651855 -0.409591495990753 2.382000207901 249 81 76
0.980601608753204 -0.40976744890213 2.38300013542175 251 83 78
0.986647605895996 -0.409600406885147 2.382000207901 255 90 85
0.993524312973022 -0.409778147935867 2.38300013542175 255 87 82
0.999989449977875 -0.409784913063049 2.38300013542175 255 89 83
1.00730180740356 -0.410136580467224 2.38500022888184 248 80 75
1.01335227489471 -0.409973293542862 2.3840000629425 250 81 79
1.0206835269928 -0.41032686829567 2.38600015640259 253 84 82
1.02845895290375 -0.41085347533226 2.38900017738342 254 85 83
1.03538703918457 -0.411037147045136 2.39000010490417 251 82 80
1.04101586341858 -0.410705924034119 2.38800001144409 254 85 83
1.04795289039612 -0.410891741514206 2.38900017738342 254 85 83
1.0544570684433 -0.410906583070755 2.38900017738342 248 82 77
1.06096458435059 -0.410922527313232 2.38900017738342 252 89 82
1.06613504886627 -0.410423547029495 2.38600015640259 247 84 75
1.07398986816406 -0.410957783460617 2.38900017738342 240 78 67
1.07869875431061 -0.410288989543915 2.38500022888184 249 87 76
1.08611941337585 -0.410653471946716 2.38700008392334 255 95 79
1.09263920783997 -0.41067510843277 2.38700008392334 251 88 81
1.10238635540009 -0.411902338266373 2.39400005340576 244 81 76
1.10939633846283 -0.412098497152328 2.39500021934509 235 87 66
1.12297677993774 -0.412322551012039 2.39600014686584 255 249 81
1.13001298904419 -0.412522524595261 2.3970000743866 255 252 75
1.13658511638641 -0.412551701068878 2.3970000743866 255 248 81
1.14173114299774 -0.412065833806992 2.39400005340576 255 248 91
1.14686548709869 -0.411581218242645 2.39100003242493 255 248 88
1.15391755104065 -0.411786466836929 2.39200019836426 255 248 81
1.16195034980774 -0.412337452173233 2.39500021934509 255 248 81
1.16951668262482 -0.4127177298069 2.3970000743866 255 247 79
1.17464590072632 -0.412238448858261 2.39400005340576 254 245 77
1.17779016494751 -0.41107165813446 2.38700008392334 255 244 76
1.18288600444794 -0.410595059394836 2.3840000629425 255 247 79
1.19046545028687 -0.410981029272079 2.38600015640259 255 247 80
1.19956648349762 -0.411885321140289 2.39100003242493 254 245 78
1.20870113372803 -0.41279137134552 2.39600014686584 253 244 77
1.21431875228882 -0.41249293088913 2.39400005340576 253 244 77
1.22095131874084 -0.412540704011917 2.39400005340576 255 246 79
1.22502636909485 -0.411728352308273 2.38900017738342 255 243 79
1.2311418056488 -0.411606758832932 2.38800001144409 255 240 78
1.23829519748688 -0.411831557750702 2.38900017738342 255 238 82
1.25420987606049 -0.412803441286087 2.39400005340576 218 90 57
1.25982844829559 -0.412516117095947 2.39200019836426 224 70 66
1.26491343975067 -0.412057876586914 2.38900017738342 224 71 69
1.27265024185181 -0.41246372461319 2.39100003242493 229 79 75
1.28094029426575 -0.413043946027756 2.39400005340576 228 79 75
1.2881795167923 -0.413281083106995 2.39500021934509 222 72 69
1.29543161392212 -0.413520038127899 2.39600014686584 228 79 76
1.30106687545776 -0.413242995738983 2.39400005340576 208 69 70
1.31270813941956 -0.414866864681244 2.40300011634827 235 109 113
1.32221174240112 -0.415802448987961 2.40800023078918 212 130 131
0.884295105934143 -0.416413307189941 2.3840000629425 255 99 102
0.887369453907013 -0.414834558963776 2.375 255 103 97
0.893783450126648 -0.414828538894653 2.375 255 94 89
0.900956809520721 -0.415172547101974 2.37700009346008 255 96 91
0.90852427482605 -0.415691941976547 2.38000011444092 255 101 98
0.913418352603912 -0.414989411830902 2.37600016593933 255 91 86
0.919453680515289 -0.41481164097786 2.375 255 94 91
0.923925995826721 -0.413936078548431 2.37000012397766 255 91 88
0.929550468921661 -0.413585245609283 2.36800003051758 255 91 88
0.935561299324036 -0.413409858942032 2.36700010299683 255 92 89
0.942762315273285 -0.413759291172028 2.36900019645691 255 93 90
0.949976086616516 -0.414109498262405 2.37100005149841 255 91 88
0.956799387931824 -0.414285957813263 2.37200021743774 255 104 101
0.964036107063293 -0.414637893438339 2.37400007247925 255 88 86
0.97087699174881 -0.414816081523895 2.375 252 81 79
0.977314114570618 -0.414820462465286 2.375 254 84 79
0.983339428901672 -0.414651155471802 2.37400007247925 255 94 89
0.989361703395844 -0.414482802152634 2.3730001449585 253 85 80
0.997059464454651 -0.415014028549194 2.37600016593933 255 89 83
1.00350904464722 -0.415022194385529 2.37600016593933 251 85 79
1.00996124744415 -0.415031373500824 2.37600016593933 251 85 79
1.01727175712585 -0.415390878915787 2.37800002098084 255 89 84
1.02588748931885 -0.416275531053543 2.38300013542175 255 87 82
1.03280019760132 -0.416462421417236 2.3840000629425 247 78 76
1.03841388225555 -0.416126400232315 2.382000207901 254 85 83
1.0440194606781 -0.415791273117065 2.38000011444092 255 89 86
1.05050027370453 -0.415806740522385 2.38000011444092 247 81 76
1.05698430538177 -0.41582328081131 2.38000011444092 250 84 78
1.06123769283295 -0.414967268705368 2.375 243 80 71
1.06816458702087 -0.415160775184631 2.37600016593933 251 89 76
1.07283902168274 -0.41448175907135 2.37200021743774 248 86 73
1.08068037033081 -0.415026992559433 2.375 240 78 65
1.08762657642365 -0.415224075317383 2.37600016593933 247 85 72
1.09872627258301 -0.416995227336884 2.38600015640259 238 75 66
1.10617887973785 -0.417369574308395 2.38800001144409 246 85 72
1.11318075656891 -0.417570471763611 2.38900017738342 225 73 49
1.1197235584259 -0.417597860097885 2.38900017738342 255 245 127
1.12721335887909 -0.41797611117363 2.39100003242493 255 244 87
1.13377034664154 -0.418006122112274 2.39100003242493 255 249 82
1.13747036457062 -0.416988432407379 2.38500022888184 255 246 79
1.14402031898499 -0.417021065950394 2.38500022888184 255 246 82
1.14912760257721 -0.416530400514603 2.382000207901 255 250 83
1.15761947631836 -0.417265236377716 2.38600015640259 255 249 82
1.16565048694611 -0.417826682329178 2.38900017738342 255 250 83
1.17223107814789 -0.417864918708801 2.38900017738342 255 246 78
1.17536294460297 -0.416680127382278 2.382000207901 255 245 78
1.17796528339386 -0.415321558713913 2.37400007247925 253 247 66
1.18452084064484 -0.415363967418671 2.37400007247925 253 246 68
1.19359064102173 -0.416282802820206 2.37900018692017 255 249 72
1.20370244979858 -0.417553335428238 2.38600015640259 255 245 81
1.21183013916016 -0.418125569820404 2.38900017738342 252 244 72
1.21794021129608 -0.417999297380447 2.38800001144409 254 243 76
1.22148728370667 -0.416999399662018 2.382000207901 255 243 79
1.22552275657654 -0.416175872087479 2.37700009346008 254 240 76
1.23316550254822 -0.41657954454422 2.37900018692017 255 240 80
1.24082577228546 -0.41698494553566 2.38100004196167 255 235 119
1.24798023700714 -0.417217016220093 2.382000207901 196 96 39
1.25567376613617 -0.417625933885574 2.3840000629425 227 73 69
1.2633855342865 -0.418036758899689 2.38600015640259 228 73 71
1.27324497699738 -0.419150352478027 2.39200019836426 230 76 80
1.2804696559906 -0.419389754533768 2.39300012588501 221 71 67
1.28663206100464 -0.419280469417572 2.39200019836426 228 75 73
1.29063332080841 -0.418471723794937 2.38700008392334 224 71 69
1.29570186138153 -0.418015211820602 2.3840000629425 218 70 70
1.30513191223145 -0.418963432312012 2.38900017738342 223 82 83
1.31404900550842 -0.419738411903381 2.39300012588501 211 81 83
1.31968533992767 -0.419462978839874 2.39100003242493 203 87 90
0.876168370246887 -0.425182551145554 2.3970000743866 226 140 142
0.873801350593567 -0.420917570590973 2.3730001449585 245 104 103
0.878353416919708 -0.42002347111702 2.36800003051758 255 98 95
0.883626878261566 -0.419484883546829 2.36500000953674 255 96 93
0.890767276287079 -0.419833898544312 2.36700010299683 255 96 91
0.896782755851746 -0.419651478528976 2.36600017547607 255 96 91
0.903939366340637 -0.420001924037933 2.36800003051758 255 92 87
0.91033947467804 -0.419998347759247 2.36800003051758 254 90 85
0.916354060173035 -0.41981828212738 2.36700010299683 254 90 85
0.921195387840271 -0.419106841087341 2.36300015449524 255 101 98
0.926801681518555 -0.418750941753387 2.36100006103516 255 96 91
0.931608617305756 -0.41804113984108 2.35700011253357 255 97 92
0.939181387424469 -0.418573677539825 2.3600001335144 255 97 92
0.946772277355194 -0.419107049703598 2.36300015449524 255 94 89
0.953574657440186 -0.419286578893662 2.36400008201599 251 82 81
0.959572553634644 -0.419112294912338 2.36300015449524 253 82 80
0.965566992759705 -0.418938845396042 2.36200022697449 255 87 85
0.973615765571594 -0.419653177261353 2.36600017547607 246 73 71
0.980445981025696 -0.419836342334747 2.36700010299683 253 82 80
0.9864501953125 -0.419665724039078 2.36600017547607 255 89 87
0.992871046066284 -0.419673442840576 2.36600017547607 246 80 75
0.999294400215149 -0.419682055711746 2.36600017547607 250 84 79
1.00657057762146 -0.420046478509903 2.36800003051758 255 93 87
1.01343262195587 -0.420234590768814 2.36900019645691 249 81 76
1.02159440517426 -0.420955896377563 2.3730001449585 250 82 77
1.02891421318054 -0.421323388814926 2.375 248 79 77
1.03581237792969 -0.421514719724655 2.37600016593933 253 84 82
1.04096400737762 -0.42099741101265 2.3730001449585 245 79 74
1.04742681980133 -0.421013414859772 2.3730001449585 248 82 77
1.0530047416687 -0.420675724744797 2.37100005149841 255 90 84
1.05857527256012 -0.420339167118073 2.36900019645691 246 83 74
1.06413805484772 -0.420003652572632 2.36700010299683 247 85 74
1.06969368457794 -0.419669330120087 2.36500000953674 248 86 75
1.07660722732544 -0.419868558645248 2.36600017547607 243 81 68
1.08307218551636 -0.419891476631165 2.36600017547607 245 83 72
1.09276437759399 -0.421157985925674 2.3730001449585 246 84 75
1.09971940517426 -0.421360909938812 2.37400007247925 246 86 70
1.10621821880341 -0.421387702226639 2.37400007247925 245 87 71
1.11365878582001 -0.421770811080933 2.37600016593933 199 117 31
1.12064278125763 -0.421977669000626 2.37700009346008 255 250 109
1.12763690948486 -0.422185927629471 2.37800002098084 255 246 82
1.13225650787354 -0.421507775783539 2.37400007247925 255 248 84
1.14021646976471 -0.422073870897293 2.37700009346008 255 249 82
1.14626812934875 -0.421931147575378 2.37600016593933 255 247 80
1.15425968170166 -0.42250007390976 2.37900018692017 255 246 82
1.16227304935455 -0.423070639371872 2.382000207901 255 246 79
1.16834485530853 -0.422932118177414 2.38100004196167 255 247 79
1.17293655872345 -0.422262221574783 2.37700009346008 255 246 78
1.17552649974823 -0.420882940292358 2.36900019645691 255 246 79
1.18306744098663 -0.421281695365906 2.37100005149841 254 245 78
1.19012367725372 -0.421504348516464 2.37200021743774 255 244 88
1.20021784305573 -0.422794938087463 2.37900018692017 253 243 80
1.20832800865173 -0.423376441001892 2.382000207901 253 244 77
1.2149304151535 -0.423426389694214 2.382000207901 253 242 75
1.21846210956573 -0.422411233186722 2.37600016593933 253 242 75
1.22248232364655 -0.42157518863678 2.37100005149841 252 240 77
1.22959172725677 -0.421807676553726 2.37200021743774 254 241 81
1.23671317100525 -0.422041803598404 2.3730001449585 253 235 89
1.24279928207397 -0.421921998262405 2.37200021743774 255 240 107
1.2520467042923 -0.422871232032776 2.37700009346008 198 80 31
1.25921130180359 -0.423110812902451 2.37800002098084 229 86 65
1.26745331287384 -0.423708111047745 2.38100004196167 223 71 65
1.27411413192749 -0.423773437738419 2.38100004196167 226 74 70
1.28239619731903 -0.424374639987946 2.3840000629425 219 67 63
1.28637707233429 -0.423553645610809 2.37900018692017 224 74 70
1.29251182079315 -0.423446387052536 2.37800002098084 222 75 71
1.30028796195984 -0.423875421285629 2.38000011444092 225 81 76
1.30973124504089 -0.424840807914734 2.38500022888184 223 80 79
1.31645095348358 -0.424917697906494 2.38500022888184 220 76 78
1.31929564476013 -0.42374911904335 2.37800002098084 212 89 93
0.864463448524475 -0.42590257525444 2.36500000953674 253 104 96
0.868270516395569 -0.424634397029877 2.35800004005432 255 103 97
0.875008404254913 -0.424807637929916 2.35900020599365 255 95 92
0.881005585193634 -0.424621343612671 2.35800004005432 253 90 87
0.887751579284668 -0.424796015024185 2.35900020599365 255 94 93
0.89298802614212 -0.424251079559326 2.35600018501282 255 103 100
0.900500059127808 -0.424787282943726 2.35900020599365 255 100 97
0.907645583152771 -0.425144225358963 2.36100006103516 255 97 90
0.914029002189636 -0.425141751766205 2.36100006103516 255 94 89
0.919634640216827 -0.424780070781708 2.35900020599365 255 103 96
0.924445927143097 -0.424058943986893 2.35500001907349 255 96 89
0.930027842521667 -0.423698842525482 2.35300016403198 255 92 83
0.936794757843018 -0.423879742622375 2.35400009155273 255 102 95
0.943969666957855 -0.424241602420807 2.35600018501282 255 93 87
0.95075386762619 -0.424424231052399 2.35700011253357 255 93 88
0.956733703613281 -0.424247682094574 2.35600018501282 252 81 79
0.962301194667816 -0.423891872167587 2.35400009155273 253 80 78
0.969917833805084 -0.424437403678894 2.35700011253357 252 79 77
0.976310253143311 -0.424443662166595 2.35700011253357 255 83 81
0.983122169971466 -0.424630910158157 2.35800004005432 252 79 77
0.98910254240036 -0.424459010362625 2.35700011253357 252 81 79
0.995502591133118 -0.424468159675598 2.35700011253357 252 81 79
1.00275540351868 -0.424838542938232 2.35900020599365 252 83 81
1.01002168655396 -0.425209939479828 2.36100006103516 249 80 78
1.01773238182068 -0.425762534141541 2.36400008201599 251 85 82
1.0245954990387 -0.425955891609192 2.36500000953674 251 82 80
1.03190338611603 -0.426330596208572 2.36700010299683 247 81 76
1.03747045993805 -0.425985902547836 2.36500000953674 242 79 70
1.04391252994537 -0.426002502441406 2.36500000953674 244 81 72
1.04858160018921 -0.425299763679504 2.36100006103516 255 94 85
1.05546641349792 -0.425498783588409 2.36200022697449 246 83 74
1.06236016750336 -0.425699025392532 2.36300015449524 245 79 73
1.06835830211639 -0.425540119409561 2.36200022697449 249 83 77
1.07480978965759 -0.425562560558319 2.36200022697449 244 81 72
1.0808070898056 -0.425406038761139 2.36100006103516 251 88 81
1.08956599235535 -0.42633193731308 2.36600017547607 248 85 78
1.09650325775146 -0.426538348197937 2.36700010299683 244 82 75
1.10298418998718 -0.426565885543823 2.36700010299683 244 82 73
1.11040675640106 -0.426955163478851 2.36900019645691 237 84 64
1.12434935569763 -0.427377372980118 2.37100005149841 255 245 89
1.12942779064178 -0.426869451999664 2.36800003051758 255 247 83
1.13545405864716 -0.426723450422287 2.36700010299683 255 245 82
1.14099705219269 -0.426398485898972 2.36500000953674 255 246 79
1.14847481250763 -0.426796168088913 2.36700010299683 255 246 78
1.15694427490234 -0.42755600810051 2.37100005149841 255 244 76
1.16396903991699 -0.427776396274567 2.37200021743774 255 246 78
1.16952407360077 -0.427457213401794 2.37000012397766 255 247 80
1.17358469963074 -0.426598310470581 2.36500000953674 254 242 78
1.18061745166779 -0.426823228597641 2.36600017547607 255 243 79
1.18715941905975 -0.426869243383408 2.36600017547607 255 246 79
1.19673430919647 -0.427999466657639 2.37200021743774 255 244 77
1.20381200313568 -0.428229242563248 2.3730001449585 250 239 71
1.2103910446167 -0.428280204534531 2.3730001449585 252 241 74
1.21697652339935 -0.428332835435867 2.3730001449585 254 243 76
1.22253692150116 -0.428026020526886 2.37100005149841 252 240 76
1.2291294336319 -0.428081959486008 2.37100005149841 253 239 75
1.23364400863647 -0.42741733789444 2.36700010299683 251 237 83
1.23866701126099 -0.426934748888016 2.36400008201599 253 235 89
1.25503826141357 -0.42814239859581 2.37000012397766 222 97 49
1.26379215717316 -0.428929835557938 2.37400007247925 229 81 69
1.26882946491241 -0.42845430970192 2.37100005149841 227 77 65
1.27654778957367 -0.428884238004684 2.3730001449585 225 75 69
1.28104031085968 -0.428231596946716 2.36900019645691 230 80 74
1.28769254684448 -0.428303778171539 2.36900019645691 221 75 68
1.29325973987579 -0.42801621556282 2.36700010299683 221 74 70
1.30486512184143 -0.429719924926758 2.37600016593933 224 77 74
1.30769753456116 -0.428531974554062 2.36900019645691 220 79 80
1.32048583030701 -0.430602222681046 2.38000011444092 199 97 100
0.855168879032135 -0.430844485759735 2.35700011253357 232 109 100
0.857145190238953 -0.428642958402634 2.34500002861023 255 104 97
0.862740159034729 -0.428270190954208 2.34300017356873 255 99 96
0.870180010795593 -0.428811967372894 2.34600019454956 255 98 95
0.877263784408569 -0.429171681404114 2.34800004959106 255 93 90
0.883606851100922 -0.429166495800018 2.34800004959106 255 91 90
0.888435423374176 -0.428431034088135 2.34400010108948 255 101 98
0.895534157752991 -0.428792953491211 2.34600019454956 255 94 91
0.903798580169678 -0.429703950881958 2.3510000705719 255 93 88
0.910155832767487 -0.429701864719391 2.3510000705719 255 94 91
0.916514694690704 -0.429700613021851 2.3510000705719 255 97 91
0.920912861824036 -0.428786367177963 2.34600019454956 255 91 86
0.92647111415863 -0.428421139717102 2.34400010108948 255 99 92
0.933612525463104 -0.428788006305695 2.34600019454956 255 91 85
0.941167294979095 -0.429338425397873 2.3490002155304 255 90 85
0.947933554649353 -0.429524183273315 2.35000014305115 254 86 81
0.953489005565643 -0.429162532091141 2.34800004959106 255 87 85
0.959035933017731 -0.42880180478096 2.34600019454956 255 82 80
0.965397298336029 -0.428807616233826 2.34600019454956 255 82 80
0.973417699337006 -0.429545402526855 2.35000014305115 255 83 81
0.980628490447998 -0.429918706417084 2.35199999809265 253 80 78
0.987013280391693 -0.429927408695221 2.35199999809265 249 78 76
0.992133677005768 -0.429388761520386 2.3490002155304 255 84 82
0.999365627765656 -0.429764986038208 2.3510000705719 254 85 84
1.00661146640778 -0.430142402648926 2.35300016403198 255 86 85
1.01387071609497 -0.430520832538605 2.35500001907349 248 82 79
1.0207108259201 -0.430717587471008 2.35600018501282 249 83 80
1.02712321281433 -0.430732548236847 2.35600018501282 255 89 86
1.03310000896454 -0.43056583404541 2.35500001907349 255 98 68
1.03863322734833 -0.430217415094376 2.35300016403198 252 91 75
1.04371476173401 -0.429687231779099 2.35000014305115 246 81 72
1.05101752281189 -0.430072426795959 2.35199999809265 250 84 78
1.05923402309418 -0.430824637413025 2.35600018501282 243 77 72
1.06657123565674 -0.431212276220322 2.35800004005432 247 81 76
1.07301294803619 -0.431235522031784 2.35800004005432 238 72 66
1.07854294776917 -0.430894166231155 2.35600018501282 251 88 81
1.08544743061066 -0.431102722883224 2.35700011253357 240 77 68
1.09189808368683 -0.431129693984985 2.35700011253357 243 80 77
1.0988187789917 -0.431340873241425 2.35800004005432 239 75 72
1.1052805185318 -0.431370466947556 2.35800004005432 241 85 69
1.11174666881561 -0.431401431560516 2.35800004005432 229 78 52
1.11963987350464 -0.431982666254044 2.36100006103516 255 251 112
1.12564623355865 -0.431833356618881 2.3600001335144 255 249 85
1.13021266460419 -0.431136518716812 2.35600018501282 255 246 82
1.13620924949646 -0.430989980697632 2.35500001907349 255 246 79
1.14463126659393 -0.431759983301163 2.35900020599365 255 247 77
1.15161645412445 -0.431982427835464 2.3600001335144 254 243 75
1.15714013576508 -0.431657254695892 2.35800004005432 254 243 75
1.16413855552673 -0.431882739067078 2.35900020599365 253 242 75
1.17114770412445 -0.432109773159027 2.3600001335144 255 246 82
1.1791660785675 -0.432704627513886 2.36300015449524 254 242 78
1.18469786643982 -0.432385474443436 2.36100006103516 255 244 76
1.19274699687958 -0.432983696460724 2.36400008201599 252 241 74
1.19878959655762 -0.432850897312164 2.36300015449524 253 242 74
1.2063627243042 -0.433269321918488 2.36500000953674 251 237 71
1.21292757987976 -0.43332302570343 2.36500000953674 252 240 76
1.21949851512909 -0.433378368616104 2.36500000953674 251 239 75
1.22400271892548 -0.432702422142029 2.36100006103516 251 237 73
1.23057591915131 -0.4327612221241 2.36100006103516 251 236 74
1.23453593254089 -0.431905150413513 2.35600018501282 252 233 80
1.24110865592957 -0.431967318058014 2.35600018501282 255 232 95
1.24609982967377 -0.431481152772903 2.35300016403198 206 72 40
1.25587296485901 -0.432647317647934 2.35900020599365 224 78 61
1.26194059848785 -0.432531595230103 2.35800004005432 225 81 66
1.27070033550262 -0.433335095643997 2.36200022697449 228 84 67
1.277867436409 -0.433590143918991 2.36300015449524 223 75 67
1.28722274303436 -0.434581369161606 2.36800003051758 224 78 71
1.29278934001923 -0.434290051460266 2.36600017547607 223 76 72
1.30054938793182 -0.434734791517258 2.36800003051758 224 85 76
1.30998563766479 -0.435732692480087 2.3730001449585 195 97 96
0.846997976303101 -0.436299741268158 2.35199999809265 245 98 94
0.849355578422546 -0.434250861406326 2.34100008010864 254 100 96
0.852751612663269 -0.432759284973145 2.33300018310547 255 99 96
0.860155940055847 -0.433308809995651 2.3360002040863 255 98 95
0.867206513881683 -0.433673471212387 2.33800005912781 255 96 95
0.873895883560181 -0.433853447437286 2.33900022506714 253 88 87
0.879462778568268 -0.433477610349655 2.33700013160706 255 98 99
0.88502037525177 -0.433102577924728 2.33500003814697 255 94 95
0.892477214336395 -0.433655768632889 2.33800005912781 255 87 95
0.899951875209808 -0.434209704399109 2.34100008010864 255 88 92
0.906283020973206 -0.434208005666733 2.34100008010864 255 87 89
0.912225902080536 -0.434021651744843 2.34000015258789 255 87 89
0.917772471904755 -0.433650642633438 2.33800005912781 255 84 83
0.923310279846191 -0.433280527591705 2.3360002040863 252 83 81
0.93082869052887 -0.433838605880737 2.33900022506714 255 89 87
0.937964737415314 -0.434212118387222 2.34100008010864 255 87 85
0.945517003536224 -0.43477201461792 2.34400010108948 253 82 80
0.951463282108307 -0.43459090590477 2.34300017356873 255 84 82
0.958223819732666 -0.434781670570374 2.34400010108948 255 84 82
0.963346183300018 -0.434231460094452 2.34100008010864 255 84 82
0.970525562763214 -0.434609651565552 2.34300017356873 255 87 78
0.977301478385925 -0.434803336858749 2.34400010108948 254 85 76
0.985344111919403 -0.435554563999176 2.34800004959106 255 87 81
0.990454614162445 -0.43500828742981 2.34500002861023 240 69 75
0.996826648712158 -0.435019552707672 2.34500002861023 248 78 80
1.00320136547089 -0.435031831264496 2.34500002861023 251 82 81
1.010009765625 -0.435230821371078 2.34600019454956 251 87 84
1.0168262720108 -0.4354307949543 2.34700012207031 247 83 80
1.02321529388428 -0.435446411371231 2.34700012207031 249 85 80
1.02960753440857 -0.435463160276413 2.34700012207031 253 90 83
1.03467869758606 -0.434924364089966 2.34400010108948 248 85 78
1.0397367477417 -0.434386670589447 2.34100008010864 243 80 73
1.04656934738159 -0.434592425823212 2.34200000762939 248 82 77
1.05520951747894 -0.435541689395905 2.34700012207031 241 75 70
1.06161856651306 -0.435564339160919 2.34700012207031 245 79 74
1.06848657131195 -0.435773760080338 2.34800004959106 246 80 75
1.07399046421051 -0.435427725315094 2.34600019454956 242 78 73
1.08225035667419 -0.436196565628052 2.35000014305115 242 78 73
1.08868324756622 -0.436224311590195 2.35000014305115 239 77 70
1.09558606147766 -0.436439007520676 2.3510000705719 238 75 70
1.10062384605408 -0.435912489891052 2.34800004959106 241 81 72
1.10706388950348 -0.435944229364395 2.34800004959106 241 82 71
1.11635363101959 -0.437091380357742 2.35400009155273 223 123 47
1.12329614162445 -0.437311679124832 2.35500001907349 255 237 99
1.12832987308502 -0.436790555715561 2.35199999809265 255 247 79
1.1333521604538 -0.436270862817764 2.3490002155304 255 247 80
1.14175915718079 -0.437052667140961 2.35300016403198 255 246 72
1.14921712875366 -0.437464535236359 2.35500001907349 255 245 71
1.15521931648254 -0.437320679426193 2.35400009155273 255 244 77
1.1617146730423 -0.437364131212235 2.35400009155273 255 245 81
1.16821551322937 -0.43740913271904 2.35400009155273 254 242 79
1.17571985721588 -0.437827378511429 2.35600018501282 255 240 78
1.18073213100433 -0.437318027019501 2.35300016403198 254 240 76
1.18724703788757 -0.437367767095566 2.35300016403198 253 239 73
1.19376802444458 -0.437419205904007 2.35300016403198 255 242 74
1.20182514190674 -0.43802997469902 2.35600018501282 253 239 73
1.20785391330719 -0.437898844480515 2.35500001907349 251 239 75
1.21439874172211 -0.437955290079117 2.35500001907349 250 235 73
1.21991372108459 -0.437641590833664 2.35300016403198 252 236 79
1.22855126857758 -0.438445627689362 2.35700011253357 251 235 78
1.23145365715027 -0.437205135822296 2.35000014305115 251 235 78
1.23590433597565 -0.436524331569672 2.34600019454956 249 233 77
1.25008416175842 -0.437028765678406 2.34800004959106 205 89 42
1.25772857666016 -0.437470078468323 2.35000014305115 224 80 65
1.26431572437286 -0.437541007995605 2.35000014305115 227 81 66
1.27415525913239 -0.438731163740158 2.35600018501282 223 77 70
1.28403675556183 -0.439923703670502 2.36200022697449 231 83 76
1.28958809375763 -0.439628332853317 2.3600001335144 223 79 74
1.29843211174011 -0.440452724695206 2.36400008201599 228 93 89
0.838139057159424 -0.441351681947708 2.34500002861023 252 107 95
0.840507328510284 -0.43927264213562 2.33400011062622 253 100 92
0.845356822013855 -0.438511788845062 2.33000016212463 255 97 91
0.851282238960266 -0.438316166400909 2.3289999961853 255 92 89
0.857571840286255 -0.438309520483017 2.3289999961853 253 89 86
0.863491654396057 -0.438115388154984 2.32800006866455 255 94 93
0.870528221130371 -0.438486546278 2.33000016212463 252 85 84
0.876824259757996 -0.438482105731964 2.33000016212463 255 94 93
0.882363736629486 -0.438102036714554 2.32800006866455 255 95 96
0.88751208782196 -0.437534481287003 2.32500004768372 255 91 92
0.894568026065826 -0.43790876865387 2.3270001411438 248 78 82
0.901636242866516 -0.438283830881119 2.3289999961853 255 89 93
0.907547533512115 -0.438095152378082 2.32800006866455 255 84 88
0.913455069065094 -0.437907308340073 2.3270001411438 255 88 92
0.919754326343536 -0.437908560037613 2.3270001411438 250 79 78
0.927647233009338 -0.438663363456726 2.33100008964539 255 83 81
0.934762597084045 -0.439042776823044 2.33300018310547 255 88 86
0.94189065694809 -0.439423024654388 2.33500003814697 246 73 71
0.948219537734985 -0.439427822828293 2.33500003814697 250 77 75
0.955368220806122 -0.439810007810593 2.33700013160706 251 78 76
0.960472524166107 -0.43925216794014 2.33400011062622 251 80 78
0.968048214912415 -0.439824521541595 2.33700013160706 250 81 72
0.975642740726471 -0.440397888422012 2.34000015258789 255 90 81
0.98409515619278 -0.441348642110825 2.34500002861023 255 92 83
0.98877614736557 -0.440606594085693 2.34100008010864 247 76 82
0.994713306427002 -0.440430223941803 2.34000015258789 252 83 81
1.00150334835052 -0.440631359815598 2.34100008010864 250 81 79
1.00787127017975 -0.440645337104797 2.34100008010864 252 86 81
1.01337563991547 -0.440284043550491 2.33900022506714 247 83 78
1.01930797100067 -0.440111935138702 2.33800005912781 248 84 79
1.02567684650421 -0.440129309892654 2.33800005912781 248 84 79
1.03028309345245 -0.439394801855087 2.33400011062622 243 79 74
1.03575932979584 -0.439037948846817 2.33200001716614 244 80 77
1.04256868362427 -0.439247041940689 2.33300018310547 253 87 84
1.0502861738205 -0.439833968877792 2.3360002040863 241 75 72
1.05757105350494 -0.440233826637268 2.33800005912781 249 83 78
1.06532597541809 -0.440823316574097 2.34100008010864 248 82 76
1.07218527793884 -0.441037565469742 2.34200000762939 240 77 70
1.07951462268829 -0.44144144654274 2.34400010108948 249 87 80
1.08500576019287 -0.441093325614929 2.34200000762939 236 74 67
1.09002423286438 -0.440558135509491 2.33900022506714 244 83 80
1.09409272670746 -0.43964746594429 2.33400011062622 239 76 73
1.10191023349762 -0.440245062112808 2.33700013160706 243 84 71
1.11117136478424 -0.441409349441528 2.34300017356873 239 97 58
1.12404954433441 -0.441481620073318 2.34300017356873 255 242 82
1.13049578666687 -0.441519975662231 2.34300017356873 255 244 84
1.13888776302338 -0.442313551902771 2.34700012207031 255 244 92
1.14584290981293 -0.442543387413025 2.34800004959106 255 246 82
1.15329957008362 -0.44296333193779 2.35000014305115 255 247 80
1.15879833698273 -0.442630797624588 2.34800004959106 255 245 81
1.16528415679932 -0.442676812410355 2.34800004959106 254 239 77
1.17177534103394 -0.44272443652153 2.34800004959106 255 240 80
1.1772688627243 -0.442396551370621 2.34600019454956 255 238 92
1.18225228786469 -0.441881597042084 2.34300017356873 253 237 81
1.18925452232361 -0.442122638225555 2.34400010108948 253 239 75
1.19677865505219 -0.442554116249084 2.34600019454956 253 239 75
1.20226812362671 -0.442232638597488 2.34400010108948 254 240 76
1.20672166347504 -0.441535502672195 2.34000015258789 255 241 79
1.21271479129791 -0.441406011581421 2.33900022506714 255 240 80
1.22183632850647 -0.442410677671433 2.34400010108948 251 236 76
1.2257524728775 -0.441529810428619 2.33900022506714 252 234 77
1.22964715957642 -0.440650373697281 2.33400011062622 248 232 75
1.23511016368866 -0.440339058637619 2.33200001716614 251 227 88
1.25244700908661 -0.441988348960876 2.34000015258789 224 80 63
1.25900793075562 -0.442060530185699 2.34000015258789 226 78 70
1.2699031829834 -0.443646252155304 2.34800004959106 227 83 78
1.27922070026398 -0.44466757774353 2.35300016403198 223 76 72
1.29021346569061 -0.446258246898651 2.36100006103516 220 80 75
1.29686546325684 -0.446339190006256 2.36100006103516 223 106 103
0.83002758026123 -0.446747720241547 2.34000015258789 198 101 104
0.831339418888092 -0.444065809249878 2.32600021362305 255 99 85
0.835817575454712 -0.443102777004242 2.32100009918213 255 100 89
0.841721177101135 -0.442904144525528 2.32000017166138 255 89 84
0.848716855049133 -0.443278819322586 2.32200002670288 253 87 84
0.855356454849243 -0.443463444709778 2.32300019264221 250 84 81
0.860889852046967 -0.443076014518738 2.32100009918213 255 91 90
0.867908239364624 -0.443452954292297 2.32300019264221 255 95 94
0.874562561511993 -0.443639725446701 2.32400012016296 255 93 92
0.880844533443451 -0.443636387586594 2.32400012016296 255 90 89
0.885982871055603 -0.443061143159866 2.32100009918213 255 91 93
0.892259895801544 -0.443059414625168 2.32100009918213 252 82 86
0.898925542831421 -0.443249344825745 2.32200002670288 255 86 90
0.904429018497467 -0.442867517471313 2.32000017166138 255 91 95
0.91070830821991 -0.442868322134018 2.32000017166138 255 85 89
0.917779922485352 -0.443251699209213 2.32200002670288 255 86 85
0.925660312175751 -0.444017887115479 2.32600021362305 255 83 81
0.931560814380646 -0.443830341100693 2.32500004768372 254 81 79
0.937458157539368 -0.443643897771835 2.32400012016296 250 77 75
0.943758189678192 -0.44364920258522 2.32400012016296 255 83 81
0.952104330062866 -0.44460991024971 2.3289999961853 255 82 80
0.958010911941528 -0.444426268339157 2.32800006866455 253 80 78
0.965571343898773 -0.445007264614105 2.33100008964539 250 80 75
0.971899688243866 -0.445016503334045 2.33100008964539 255 91 72
0.979909181594849 -0.445790469646454 2.33500003814697 247 82 63
0.984986305236816 -0.445229053497314 2.33200001716614 253 86 76
0.99132513999939 -0.44524148106575 2.33200001716614 249 80 78
0.997239053249359 -0.445064097642899 2.33100008964539 248 79 77
1.00358080863953 -0.445078670978546 2.33100008964539 246 80 75
1.00949227809906 -0.444903403520584 2.33000016212463 248 82 77
1.01627326011658 -0.445111185312271 2.33100008964539 248 82 77
1.02306282520294 -0.445320159196854 2.33200001716614 244 78 75
1.0276540517807 -0.444575518369675 2.32800006866455 247 81 78
1.03355920314789 -0.444404900074005 2.3270001411438 249 83 80
1.04035604000092 -0.444617420434952 2.32800006866455 248 82 79
1.04716181755066 -0.444831192493439 2.3289999961853 243 79 76
1.05352425575256 -0.444855242967606 2.3289999961853 236 72 67
1.06080079078674 -0.445262581110001 2.33100008964539 240 77 70
1.06809210777283 -0.44567134976387 2.33300018310547 247 84 77
1.0749374628067 -0.44589027762413 2.33400011062622 241 79 70
1.08040249347687 -0.445537507534027 2.33200001716614 249 87 78
1.08586084842682 -0.445186048746109 2.33000016212463 237 77 70
1.09178102016449 -0.445026934146881 2.3289999961853 241 79 80
1.09958624839783 -0.44563353061676 2.33200001716614 244 81 78
1.10836088657379 -0.446623921394348 2.33700013160706 241 83 76
1.11430561542511 -0.446469128131866 2.3360002040863 234 82 66
1.12024939060211 -0.446315765380859 2.33500003814697 255 239 113
1.12715756893158 -0.446546167135239 2.3360002040863 255 239 86
1.13504672050476 -0.447160452604294 2.33900022506714 254 245 78
1.1439334154129 -0.448158711194992 2.34400010108948 255 245 77
1.1518714427948 -0.448776364326477 2.34700012207031 253 242 75
1.15785717964172 -0.448630750179291 2.34600019454956 255 245 81
1.16334617137909 -0.44829535484314 2.34400010108948 253 241 78
1.1678318977356 -0.447579026222229 2.34000015258789 253 240 80
1.17330467700958 -0.447246730327606 2.33800005912781 254 240 84
1.17826759815216 -0.446724742650986 2.33500003814697 252 238 82
1.18524956703186 -0.446969628334045 2.3360002040863 253 238 76
1.1917325258255 -0.44702485203743 2.3360002040863 251 237 73
1.19617033004761 -0.446316301822662 2.33200001716614 251 237 73
1.20265471935272 -0.446374952793121 2.33200001716614 250 236 72
1.20966458320618 -0.446626842021942 2.33300018310547 250 235 73
1.21877133846283 -0.447646379470825 2.33800005912781 248 233 71
1.22267246246338 -0.446753174066544 2.33300018310547 253 236 76
1.22813284397125 -0.446436047554016 2.33100008964539 252 233 70
1.23464846611023 -0.446503788232803 2.33100008964539 249 234 72
1.24117147922516 -0.446573436260223 2.33100008964539 255 243 97
1.24877202510834 -0.447028249502182 2.33300018310547 197 108 35
1.25370132923126 -0.446526914834976 2.33000016212463 217 84 58
1.26348912715912 -0.447752445936203 2.3360002040863 225 79 71
1.27223110198975 -0.448596954345703 2.34000015258789 229 85 80
1.28482913970947 -0.450785964727402 2.3510000705719 209 92 89
0.821590721607208 -0.451923131942749 2.33400011062622 244 107 103
0.823633432388306 -0.449590176343918 2.32200002670288 251 95 88
0.827756702899933 -0.448419690132141 2.31600022315979 255 97 91
0.832928717136383 -0.447830647230148 2.31300020217896 255 92 87
0.839174270629883 -0.447823226451874 2.31300020217896 255 91 89
0.846517324447632 -0.44839733839035 2.31600022315979 255 87 85
0.8531414270401 -0.448584944009781 2.31700015068054 251 80 79
0.858659267425537 -0.448192417621613 2.31500005722046 255 91 93
0.865662276744843 -0.448575139045715 2.31700015068054 255 95 94
0.871924757957459 -0.448571354150772 2.31700015068054 255 94 91
