-0.633022010326386 -0.477873116731644 2.20500016212463 255 121 102
-0.627376139163971 -0.478103756904602 2.20600008964539 253 118 100
-0.62003493309021 -0.477034449577332 2.20100021362305 255 122 107
-0.613836705684662 -0.476832360029221 2.20000004768372 255 125 107
-0.607643961906433 -0.476630568504334 2.19900012016296 248 120 96
-0.602551221847534 -0.477296233177185 2.2020001411438 239 111 87
-0.596087574958801 -0.47687840461731 2.20000004768372 248 122 89
-0.590439558029175 -0.47711119055748 2.20100021362305 252 130 97
-0.583723843097687 -0.476477205753326 2.19800019264221 254 132 109
-0.578075706958771 -0.476710557937622 2.19900012016296 255 152 129
-0.566505491733551 -0.476961344480515 2.20000004768372 253 139 105
-0.560588717460632 -0.476978659629822 2.20000004768372 251 124 105
-0.553663372993469 -0.476129055023193 2.19600009918213 255 135 118
-0.843237936496735 -0.766159474849701 3.53300023078918 237 123 108
-0.714775502681732 -0.482791185379028 2.20100021362305 195 114 97
-0.706595122814178 -0.481262385845184 2.19400000572205 228 108 91
-0.69941121339798 -0.480392217636108 2.19000005722046 250 125 106
-0.693516135215759 -0.480400055646896 2.19000005722046 230 109 72
-0.688563644886017 -0.481066524982452 2.19300007820129 228 110 71
-0.683595538139343 -0.481733590364456 2.19600009918213 241 119 78
-0.678303241729736 -0.482181817293167 2.19800019264221 227 107 68
-0.672388970851898 -0.482191860675812 2.19800019264221 218 110 68
-0.667081415653229 -0.482641100883484 2.20000004768372 215 111 72
-0.661162495613098 -0.48265215754509 2.20000004768372 203 108 69
-0.637490272521973 -0.482700824737549 2.20000004768372 230 205 131
-0.630711674690247 -0.482055872678757 2.19700002670288 245 234 141
-0.563913345336914 -0.480688840150833 2.19000005722046 223 213 124
-0.558787703514099 -0.481364548206329 2.19300007820129 248 119 97
-0.552637338638306 -0.481162458658218 2.19200015068054 253 125 111
-0.546741604804993 -0.481180131435394 2.19200015068054 255 139 120
-0.541092336177826 -0.48141747713089 2.19300007820129 255 144 124
-0.537389993667603 -0.483411431312561 2.2020001411438 232 125 104
-0.825444281101227 -0.768014311790466 3.4980001449585 237 130 109
-0.711197078227997 -0.486280262470245 2.19000005722046 255 125 107
-0.704655945301056 -0.48584246635437 2.18800020217896 247 112 93
-0.664645075798035 -0.486790776252747 2.19200015068054 255 255 155
-0.65874719619751 -0.486801445484161 2.19200015068054 255 255 158
-0.653147578239441 -0.48703470826149 2.19300007820129 255 255 153
-0.648133218288422 -0.487712621688843 2.19600009918213 255 255 151
-0.64193332195282 -0.487502694129944 2.19500017166138 255 255 145
-0.635159313678741 -0.486848890781403 2.19200015068054 255 255 139
-0.628114759922028 -0.485973447561264 2.18800020217896 255 255 152
-0.622798264026642 -0.486431002616882 2.19000005722046 255 255 158
-0.616907775402069 -0.486444741487503 2.19000005722046 255 255 159
-0.610459446907043 -0.486014664173126 2.18800020217896 255 255 150
-0.603745639324188 -0.485362738370895 2.18500018119812 255 255 148
-0.598416090011597 -0.485821813344955 2.18700003623962 255 255 149
-0.586920380592346 -0.48607474565506 2.18800020217896 254 255 154
-0.581035733222961 -0.486090570688248 2.18800020217896 255 255 153
-0.574625372886658 -0.485662400722504 2.18600010871887 255 255 159
-0.557751297950745 -0.486379057168961 2.18900012969971 255 136 108
-0.551863551139832 -0.486396342515945 2.18900012969971 255 140 120
-0.545227408409119 -0.485747158527374 2.18600010871887 252 127 107
-0.538853883743286 -0.485320389270782 2.18400001525879 255 130 111
-0.533223152160645 -0.48556050658226 2.18500018119812 255 139 120
-0.5278280377388 -0.486023008823395 2.18700003623962 229 130 111
-0.720347762107849 -0.490374594926834 2.18200016021729 252 127 107
-0.715452551841736 -0.491053462028503 2.18500018119812 255 111 94
-0.709892272949219 -0.491283416748047 2.18600010871887 255 98 88
-0.703683495521545 -0.491064608097076 2.18500018119812 244 96 75
-0.690650582313538 -0.490179181098938 2.18099999427795 255 255 132
-0.685407161712646 -0.490636318922043 2.18300008773804 255 255 121
-0.680776178836823 -0.491543561220169 2.18700003623962 255 255 121
-0.674581289291382 -0.491327613592148 2.18600010871887 255 255 118
-0.668392360210419 -0.491112232208252 2.18500018119812 255 255 117
-0.662512302398682 -0.49112206697464 2.18500018119812 255 255 126
-0.657233893871307 -0.491581916809082 2.18700003623962 255 255 131
-0.651349365711212 -0.491592735052109 2.18700003623962 255 255 138
-0.645760416984558 -0.491828948259354 2.18800020217896 255 255 127
-0.639581382274628 -0.491615891456604 2.18700003623962 255 255 132
-0.633118391036987 -0.491178542375565 2.18500018119812 255 255 138
-0.626953482627869 -0.490966379642487 2.18400001525879 255 255 143
-0.621078550815582 -0.490979462862015 2.18400001525879 255 255 146
-0.615485548973084 -0.491217821836472 2.18500018119812 255 255 146
-0.609329223632813 -0.491006791591644 2.18400001525879 255 255 152
-0.602902233600616 -0.490571439266205 2.18200016021729 255 255 153
-0.597033202648163 -0.49058598279953 2.18200016021729 254 255 152
-0.591435194015503 -0.490825772285461 2.18300008773804 255 255 155
-0.556969881057739 -0.491596728563309 2.18600010871887 248 139 103
-0.550585746765137 -0.491163909435272 2.18400001525879 255 131 107
-0.543713390827179 -0.490281611680985 2.1800000667572 255 136 112
-0.537355899810791 -0.489849299192429 2.1780002117157 255 131 108
-0.531252920627594 -0.4896419942379 2.17700004577637 255 132 108
-0.525396466255188 -0.489659875631332 2.17700004577637 255 133 110
-0.519301295280457 -0.489453077316284 2.17600011825562 255 137 114
-0.513683021068573 -0.489696174860001 2.17700004577637 225 125 102
-0.790313124656677 -0.780183494091034 3.46800017356873 245 133 108
-0.722894728183746 -0.493978351354599 2.17200016975403 238 124 110
-0.718693137168884 -0.495119005441666 2.17700004577637 255 111 97
-0.713483154773712 -0.495578050613403 2.17900013923645 252 98 82
-0.707938492298126 -0.495810270309448 2.1800000667572 255 96 87
-0.701745212078094 -0.495588392019272 2.17900013923645 255 107 90
-0.689693450927734 -0.495373755693436 2.1780002117157 255 255 131
-0.683829665184021 -0.495381027460098 2.1780002117157 255 255 117
-0.678277671337128 -0.495616316795349 2.17900013923645 255 255 119
-0.67241233587265 -0.495624721050262 2.17900013923645 255 255 119
-0.666241705417633 -0.495406240224838 2.1780002117157 255 255 113
-0.659773468971252 -0.494960725307465 2.17600011825562 255 255 123
-0.654819369316101 -0.49565315246582 2.17900013923645 255 255 134
-0.649551391601563 -0.496118515729904 2.18099999427795 255 255 134
-0.643978238105774 -0.496357083320618 2.18200016021729 255 255 133
-0.638107419013977 -0.496368527412415 2.18200016021729 255 255 134
-0.631947040557861 -0.49615290760994 2.18099999427795 255 255 137
-0.6263667345047 -0.496392816305161 2.18200016021729 255 255 143
-0.619643568992615 -0.495723068714142 2.17900013923645 255 255 145
-0.614063560962677 -0.495963782072067 2.1800000667572 255 255 149
-0.608199298381805 -0.495977342128754 2.1800000667572 255 255 152
-0.601782739162445 -0.495536297559738 2.1780002117157 255 255 153
-0.595650494098663 -0.495323061943054 2.17700004577637 255 255 156
-0.555424392223358 -0.496115237474442 2.1800000667572 238 127 89
-0.549308240413666 -0.495904475450516 2.17900013923645 255 129 109
-0.541950345039368 -0.494555950164795 2.17300009727478 255 136 113
-0.535117983818054 -0.493662804365158 2.16900014877319 255 135 112
-0.528795003890991 -0.49322497844696 2.16700005531311 255 134 110
-0.52344799041748 -0.493697911500931 2.16900014877319 255 132 108
-0.517374098300934 -0.493488132953644 2.16800022125244 255 135 111
-0.51177716255188 -0.493733733892441 2.16900014877319 254 138 114
-0.506407856941223 -0.494207203388214 2.1710000038147 252 142 120
-0.732232987880707 -0.49821874499321 2.16500020027161 208 120 106
-0.728074550628662 -0.499370992183685 2.17000007629395 242 115 103
-0.721560418605804 -0.498913168907166 2.16800022125244 249 107 92
-0.716708660125732 -0.49960657954216 2.1710000038147 255 103 89
-0.711514234542847 -0.500070571899414 2.17300009727478 255 100 87
-0.705985009670258 -0.50030505657196 2.17400002479553 255 100 91
-0.699807286262512 -0.500080049037933 2.17300009727478 255 108 91
-0.688103258609772 -0.500091969966888 2.17300009727478 255 255 129
-0.681310474872589 -0.499408453702927 2.17000007629395 255 255 117
-0.67546820640564 -0.499415874481201 2.17000007629395 255 255 118
-0.669626533985138 -0.499423861503601 2.17000007629395 255 255 118
-0.664397239685059 -0.499892771244049 2.17200016975403 255 255 123
-0.658247947692871 -0.499671697616577 2.1710000038147 255 255 125
-0.653006136417389 -0.500141680240631 2.17300009727478 255 255 140
-0.646860539913177 -0.499921679496765 2.17200016975403 255 255 133
-0.641015827655792 -0.499932259321213 2.17200016975403 255 255 134
-0.635463893413544 -0.500173568725586 2.17300009727478 255 255 136
-0.630196690559387 -0.500645458698273 2.17500019073486 255 255 137
-0.624918937683105 -0.501117825508118 2.17700004577637 255 255 144
-0.617924511432648 -0.50020956993103 2.17300009727478 255 255 147
-0.611796855926514 -0.499992221593857 2.17200016975403 255 255 151
-0.605953812599182 -0.500005483627319 2.17200016975403 255 255 153
-0.600387215614319 -0.50024938583374 2.17300009727478 254 255 148
-0.594268083572388 -0.50003319978714 2.17200016975403 255 255 158
-0.554133951663971 -0.500831663608551 2.17500019073486 225 120 85
-0.548030912876129 -0.500617861747742 2.17400002479553 255 127 105
-0.540935754776001 -0.499483317136765 2.16900014877319 255 136 113
-0.534360587596893 -0.498809456825256 2.16600012779236 255 130 107
-0.528045535087585 -0.498366087675095 2.16400003433228 255 133 109
-0.522223651409149 -0.498383522033691 2.16400003433228 254 130 106
-0.515924394130707 -0.497940570116043 2.16200017929077 255 131 107
-0.509871602058411 -0.497728019952774 2.16100001335144 255 136 109
-0.504523575305939 -0.498206615447998 2.16300010681152 255 136 112
-0.4996258020401 -0.499146163463593 2.16700005531311 255 147 118
-0.495617657899857 -0.501007318496704 2.17500019073486 245 143 118
-0.742190301418304 -0.502892136573792 2.16000008583069 193 104 92
-0.736705899238586 -0.503124594688416 2.16100001335144 250 123 111
-0.731217265129089 -0.503357946872711 2.16200017929077 255 105 93
-0.726730704307556 -0.504290342330933 2.16600012779236 255 103 89
-0.720892310142517 -0.504292249679565 2.16600012779236 255 102 89
-0.715715169906616 -0.504760503768921 2.16800022125244 255 98 87
-0.709873259067535 -0.504763782024384 2.16800022125244 255 97 86
-0.703382670879364 -0.504302084445953 2.16600012779236 255 94 85
-0.69722580909729 -0.504073858261108 2.16500020027161 255 106 90
-0.685880362987518 -0.504317760467529 2.16600012779236 255 255 125
-0.679419696331024 -0.503858506679535 2.16400003433228 255 255 110
-0.673592984676361 -0.503865540027618 2.16400003433228 255 255 115
-0.667149841785431 -0.503407537937164 2.16200017929077 255 255 120
-0.662247359752655 -0.504114270210266 2.16500020027161 255 255 125
-0.656722784042358 -0.504355788230896 2.16600012779236 255 255 129
-0.650892913341522 -0.504365086555481 2.16600012779236 255 255 134
-0.644467771053314 -0.503909051418304 2.16400003433228 255 255 133
-0.638939321041107 -0.504152178764343 2.16500020027161 255 255 136
-0.633405685424805 -0.504395842552185 2.16600012779236 255 255 140
-0.628156840801239 -0.504872798919678 2.16800022125244 255 255 143
-0.622036278247833 -0.504651546478271 2.16700005531311 255 255 148
-0.615637183189392 -0.504197955131531 2.16500020027161 254 255 149
-0.609812319278717 -0.504210472106934 2.16500020027161 255 255 154
-0.603987753391266 -0.50422340631485 2.16500020027161 255 255 154
-0.598439455032349 -0.504469633102417 2.16600012779236 255 255 155
-0.592065155506134 -0.504017531871796 2.16400003433228 255 255 157
-0.551569938659668 -0.50435608625412 2.16500020027161 223 122 83
-0.545745730400085 -0.504372417926788 2.16500020027161 255 132 108
-0.539671957492828 -0.504155874252319 2.16400003433228 255 131 108
-0.533356904983521 -0.503706812858582 2.16200017929077 255 129 106
-0.527540385723114 -0.503723800182343 2.16200017929077 252 128 104
-0.520999670028687 -0.503041982650757 2.15900015830994 255 132 108
-0.514236390590668 -0.502127408981323 2.15500020980835 255 135 108
-0.507966339588165 -0.501678943634033 2.15300011634827 255 135 108
-0.503106117248535 -0.502628743648529 2.15700006484985 255 133 109
-0.49845489859581 -0.503811895847321 2.16200017929077 255 142 111
-0.493320673704147 -0.504529178142548 2.16500020027161 255 146 117
-0.488169997930527 -0.505246639251709 2.16800022125244 225 131 142
-0.74081689119339 -0.507775664329529 2.1560001373291 250 117 105
-0.735001623630524 -0.507774829864502 2.1560001373291 248 98 86
-0.72986376285553 -0.508245766162872 2.15799999237061 255 97 86
-0.724716246128082 -0.50871741771698 2.16000008583069 255 100 89
-0.719559073448181 -0.509189963340759 2.16200017929077 255 99 88
-0.714061856269836 -0.509427547454834 2.16300010681152 255 96 85
-0.708232700824738 -0.509430348873138 2.16300010681152 255 100 89
-0.701105535030365 -0.50849175453186 2.15900015830994 255 93 84
-0.694322764873505 -0.507789313793182 2.1560001373291 255 101 90
-0.68302446603775 -0.508035004138947 2.15700006484985 255 255 120
-0.677529394626617 -0.508276522159576 2.15799999237061 255 255 108
-0.672029614448547 -0.508518755435944 2.15900015830994 255 255 114
-0.665290653705597 -0.507819294929504 2.1560001373291 255 255 123
-0.659791946411133 -0.508062541484833 2.15700006484985 255 255 125
-0.654288411140442 -0.508306443691254 2.15799999237061 255 255 127
-0.648179054260254 -0.508079767227173 2.15700006484985 255 255 133
-0.642075538635254 -0.507853627204895 2.1560001373291 255 255 133
-0.636568009853363 -0.508099019527435 2.15700006484985 255 255 137
-0.631347954273224 -0.508580505847931 2.15900015830994 255 255 143
-0.625537872314453 -0.50859135389328 2.15900015830994 255 255 144
-0.619728267192841 -0.508602678775787 2.15900015830994 255 255 149
-0.613350093364716 -0.508143246173859 2.15700006484985 255 255 152
-0.607546389102936 -0.508155465126038 2.15700006484985 255 255 153
-0.60174286365509 -0.508168041706085 2.15700006484985 255 255 154
-0.596492052078247 -0.50865226984024 2.15900015830994 255 255 153
-0.590136289596558 -0.508194446563721 2.15700006484985 255 255 158
-0.584333121776581 -0.508208155632019 2.15700006484985 255 255 159
-0.566661596298218 -0.508015930652618 2.1560001373291 255 255 157
-0.550025284290314 -0.50876921415329 2.15900015830994 233 139 96
-0.543964803218842 -0.508549511432648 2.15799999237061 248 122 99
-0.538657903671265 -0.509037137031555 2.16000008583069 255 137 114
-0.533093333244324 -0.509289383888245 2.16100001335144 255 140 116
-0.527035295963287 -0.509070515632629 2.16000008583069 255 137 110
-0.520258486270905 -0.508144795894623 2.1560001373291 255 137 110
-0.513503134250641 -0.507219195365906 2.15200018882751 255 138 110
-0.507005035877228 -0.506529450416565 2.14900016784668 255 135 107
-0.501922190189362 -0.507254123687744 2.15200018882751 255 141 112
-0.496823072433472 -0.507979035377502 2.15500020980835 255 141 114
-0.491251796483994 -0.508232653141022 2.1560001373291 255 138 113
-0.485674858093262 -0.508486449718475 2.15700006484985 255 142 117
-0.481872111558914 -0.510626435279846 2.16600012779236 254 141 120
-0.753701746463776 -0.510502815246582 2.14300012588501 219 109 95
-0.748615145683289 -0.510975480079651 2.14500021934509 250 116 100
-0.744557857513428 -0.512163639068604 2.15000009536743 255 116 99
-0.739443957805634 -0.512637913227081 2.15200018882751 254 100 84
-0.733638763427734 -0.512636601924896 2.15200018882751 255 108 94
-0.728510916233063 -0.513112366199493 2.15400004386902 255 97 86
-0.722702383995056 -0.513112485408783 2.15400004386902 255 104 93
-0.717560589313507 -0.513589859008789 2.1560001373291 255 101 92
-0.711418569087982 -0.513353228569031 2.15500020980835 255 99 90
-0.705610334873199 -0.513355553150177 2.15500020980835 255 101 92
-0.698503971099854 -0.512405633926392 2.15100002288818 255 105 94
-0.692386209964752 -0.5121710896492 2.15000009536743 255 107 90
-0.686274647712708 -0.511937201023102 2.14900016784668 255 255 153
-0.681752383708954 -0.512895047664642 2.15300011634827 255 255 119
-0.676895380020142 -0.513615369796753 2.1560001373291 255 255 110
-0.671089112758636 -0.51362156867981 2.1560001373291 255 255 115
-0.664049088954926 -0.512675404548645 2.15200018882751 255 255 119
-0.657031238079071 -0.511729717254639 2.14800000190735 255 255 127
-0.651248157024384 -0.511737585067749 2.14800000190735 255 255 126
-0.645766258239746 -0.511984348297119 2.14900016784668 255 255 129
-0.640576958656311 -0.512469708919525 2.15100002288818 255 255 134
-0.63449227809906 -0.512241005897522 2.15000009536743 255 255 137
-0.628998041152954 -0.512489199638367 2.15100002288818 255 255 140
-0.62291944026947 -0.51226145029068 2.15000009536743 255 255 145
-0.617420554161072 -0.512510657310486 2.15100002288818 255 255 146
-0.611632227897644 -0.512522041797638 2.15100002288818 255 255 149
-0.606407582759857 -0.513010442256927 2.15300011634827 254 255 151
-0.600335478782654 -0.512784481048584 2.15200018882751 255 255 153
-0.594545066356659 -0.512797117233276 2.15200018882751 254 255 152
-0.588207721710205 -0.512333571910858 2.15000009536743 255 255 158
-0.582423150539398 -0.512346982955933 2.15000009536743 255 255 158
-0.576370477676392 -0.512122511863709 2.14900016784668 255 255 159
-0.570588767528534 -0.512136697769165 2.14900016784668 255 255 159
-0.565595507621765 -0.512866079807281 2.15200018882751 254 255 154
-0.560325980186462 -0.513357639312744 2.15400004386902 255 255 156
-0.548226237297058 -0.5129114985466 2.15200018882751 238 155 107
-0.542184412479401 -0.512688875198364 2.15100002288818 249 131 102
-0.536896049976349 -0.513181626796722 2.15300011634827 255 131 107
-0.530856609344482 -0.512959539890289 2.15200018882751 255 136 109
-0.524822592735291 -0.512737631797791 2.15100002288818 255 138 110
-0.518793761730194 -0.51251608133316 2.15000009536743 255 141 110
-0.512292921543121 -0.511817812919617 2.1470000743866 255 136 103
-0.506044030189514 -0.511358141899109 2.14500021934509 255 138 107
-0.500505328178406 -0.51161390542984 2.14600014686584 255 141 110
-0.494961023330688 -0.511869788169861 2.1470000743866 255 141 112
-0.489638984203339 -0.512364327907562 2.14900016784668 255 143 118
-0.483405262231827 -0.511905252933502 2.1470000743866 255 148 123
-0.478294372558594 -0.512638568878174 2.15000009536743 255 143 119
-0.474485695362091 -0.514802753925323 2.15900015830994 255 138 118
-0.474318593740463 -0.521020829677582 2.18500018119812 249 138 142
-0.756657779216766 -0.514362812042236 2.13499999046326 223 122 111
-0.7522993683815 -0.515321314334869 2.13900017738342 253 111 96
-0.747222661972046 -0.515798807144165 2.14100003242493 253 107 90
-0.743175446987152 -0.516999900341034 2.14600014686584 255 110 93
-0.738071501255035 -0.517478942871094 2.14800000190735 255 104 88
-0.732276260852814 -0.517477095127106 2.14800000190735 255 104 90
-0.726482093334198 -0.51747590303421 2.14800000190735 255 105 94
-0.720353543758392 -0.517234623432159 2.1470000743866 255 99 88
-0.714231371879578 -0.516994118690491 2.14600014686584 255 97 88
-0.708445727825165 -0.516995191574097 2.14600014686584 255 102 93
-0.702333748340607 -0.516756176948547 2.14500021934509 255 102 92
-0.69590300321579 -0.516276776790619 2.14300012588501 250 94 87
-0.690450251102448 -0.516520857810974 2.14400005340576 255 112 95
-0.685312211513519 -0.517006516456604 2.14600014686584 255 245 143
-0.680480718612671 -0.517733752727509 2.14900016784668 255 255 119
-0.67563384771347 -0.51846170425415 2.15200018882751 255 255 110
-0.669526398181915 -0.518226444721222 2.15100002288818 255 255 108
-0.662499368190765 -0.517269134521484 2.1470000743866 255 255 112
-0.655494451522827 -0.516312301158905 2.14300012588501 255 255 124
-0.649421155452728 -0.516078889369965 2.14200019836426 255 255 126
-0.643954694271088 -0.516327798366547 2.14300012588501 255 255 130
-0.63848340511322 -0.516577243804932 2.14400005340576 255 255 132
-0.633007287979126 -0.516827404499054 2.14500021934509 255 255 137
-0.627233564853668 -0.516836941242218 2.14500021934509 255 255 140
-0.621460258960724 -0.516847014427185 2.14500021934509 254 255 132
-0.61626148223877 -0.517339527606964 2.1470000743866 255 255 146
-0.610767841339111 -0.51759147644043 2.14800000190735 255 255 146
-0.604987323284149 -0.517602920532227 2.14800000190735 255 255 152
-0.598649322986603 -0.517132937908173 2.14600014686584 255 255 153
-0.592874825000763 -0.517145276069641 2.14600014686584 255 255 153
-0.586826741695404 -0.516916990280151 2.14500021934509 255 255 155
-0.580513417720795 -0.516448080539703 2.14300012588501 255 255 158
-0.575015604496002 -0.516702592372894 2.14400005340576 255 255 158
-0.568981468677521 -0.516475439071655 2.14300012588501 255 255 158
-0.557709872722626 -0.516745150089264 2.14400005340576 255 255 157
-0.541160464286804 -0.517513573169708 2.1470000743866 246 129 98
-0.535633146762848 -0.517770409584045 2.14800000190735 255 133 106
-0.529113709926605 -0.51706326007843 2.14500021934509 255 134 107
-0.522610306739807 -0.516356348991394 2.14200019836426 255 133 102
-0.516605377197266 -0.516131579875946 2.14100003242493 255 139 108
-0.51084440946579 -0.516148269176483 2.14100003242493 254 134 101
-0.505319178104401 -0.516406297683716 2.14200019836426 255 136 105
-0.499088674783707 -0.515941143035889 2.14000010490417 255 139 108
-0.492868721485138 -0.515476167201996 2.13800001144409 255 142 113
-0.487115025520325 -0.51549357175827 2.13800001144409 255 142 113
-0.481586307287216 -0.51575231552124 2.13900017738342 255 145 118
-0.475829422473907 -0.515770018100739 2.13900017738342 255 143 118
-0.470511734485626 -0.516270101070404 2.14100003242493 254 133 114
-0.466485530138016 -0.518217325210571 2.14900016784668 255 135 118
-0.464345335960388 -0.522335112094879 2.16600012779236 255 141 131
-0.761002779006958 -0.519156813621521 2.13100004196167 236 122 108
-0.75560051202774 -0.519393801689148 2.132000207901 244 106 91
-0.751249372959137 -0.520362436771393 2.13600015640259 255 104 88
-0.746179938316345 -0.520844697952271 2.13800001144409 255 110 92
-0.742139875888824 -0.522058665752411 2.14300012588501 255 103 85
-0.73669970035553 -0.522298991680145 2.14400005340576 255 104 88
-0.730914413928986 -0.522296547889709 2.14400005340576 255 104 90
-0.724792063236237 -0.522051215171814 2.14300012588501 255 102 93
-0.718340694904327 -0.521563053131104 2.14100003242493 255 95 86
-0.711901187896729 -0.52107572555542 2.13900017738342 255 96 89
-0.705473482608795 -0.520589053630829 2.13700008392334 255 99 92
-0.699384927749634 -0.520346760749817 2.13600015640259 255 104 95
-0.69362735748291 -0.520348727703094 2.13600015640259 255 101 91
-0.688192665576935 -0.520594954490662 2.13700008392334 255 102 88
-0.678576231002808 -0.522063970565796 2.14300012588501 255 255 131
-0.673430979251862 -0.522555947303772 2.14500021934509 255 255 113
-0.667341828346252 -0.52231752872467 2.14400005340576 255 255 113
-0.660641551017761 -0.521592557430267 2.14100003242493 255 255 118
-0.653958082199097 -0.520868122577667 2.13800001144409 255 255 123
-0.647594511508942 -0.520387947559357 2.13600015640259 255 255 124
-0.64244419336319 -0.520882785320282 2.13800001144409 255 255 129
-0.636687994003296 -0.520890891551971 2.13800001144409 255 255 131
-0.630932331085205 -0.520899593830109 2.13800001144409 255 255 134
-0.62488454580307 -0.520665109157562 2.13700008392334 255 255 137
-0.619422078132629 -0.520918428897858 2.13800001144409 255 255 139
-0.614528596401215 -0.521659553050995 2.14100003242493 255 255 142
-0.609050691127777 -0.521913886070251 2.14200019836426 255 255 146
-0.603286027908325 -0.521925032138824 2.14200019836426 255 255 149
-0.59696364402771 -0.521449208259583 2.14000010490417 255 255 151
-0.591204762458801 -0.521461129188538 2.14000010490417 255 255 152
-0.585172593593597 -0.521229863166809 2.13900017738342 255 255 153
-0.578875005245209 -0.520755171775818 2.13700008392334 255 255 154
-0.573392868041992 -0.521012008190155 2.13800001144409 255 255 158
-0.567374646663666 -0.520781815052032 2.13700008392334 255 255 158
-0.539380669593811 -0.521585524082184 2.14000010490417 248 137 108
-0.533622622489929 -0.521600961685181 2.14000010490417 255 132 105
-0.526877701282501 -0.520641684532166 2.13600015640259 255 139 112
-0.520642220973969 -0.520170092582703 2.1340000629425 255 135 107
-0.514417409896851 -0.519698739051819 2.132000207901 255 139 108
-0.508680462837219 -0.519715070724487 2.132000207901 255 137 104
-0.50317919254303 -0.519975423812866 2.13300013542175 255 140 109
-0.496739536523819 -0.519260883331299 2.13000011444092 255 139 108
-0.490776896476746 -0.519034028053284 2.12900018692017 254 137 108
-0.485047250986099 -0.519051134586334 2.12900018692017 255 140 113
-0.479542464017868 -0.519312262535095 2.13000011444092 255 146 119
-0.474032133817673 -0.519573509693146 2.13100004196167 255 142 113
-0.46807661652565 -0.519347310066223 2.13000011444092 252 134 107
-0.462994456291199 -0.52009654045105 2.13300013542175 255 141 107
-0.458110243082047 -0.521089792251587 2.13700008392334 255 144 110
-0.454474240541458 -0.523546278476715 2.1470000743866 255 146 118
-0.452665001153946 -0.528197824954987 2.16600012779236 254 143 123
-0.456941932439804 -0.540165781974792 2.21500015258789 207 96 100
-0.769992232322693 -0.523202002048492 2.12400007247925 221 109 95
-0.764250516891479 -0.523192882537842 2.12400007247925 251 115 92
-0.758867502212524 -0.523431003093719 2.125 251 100 82
-0.753480672836304 -0.523670136928558 2.12600016593933 255 100 83
-0.749144732952118 -0.524648904800415 2.13000011444092 255 100 80
-0.744439780712128 -0.525382280349731 2.13300013542175 253 98 78
-0.739027082920074 -0.525623857975006 2.1340000629425 255 102 84
-0.733266770839691 -0.525619983673096 2.1340000629425 255 108 92
-0.727848529815674 -0.525863170623779 2.13499999046326 255 99 86
-0.722426176071167 -0.526107311248779 2.13600015640259 255 95 84
-0.716664016246796 -0.52610582113266 2.13600015640259 255 99 88
-0.709904372692108 -0.525366187095642 2.13300013542175 255 96 87
-0.704152286052704 -0.525366187095642 2.13300013542175 255 102 93
-0.698073863983154 -0.525120675563812 2.132000207901 255 101 90
-0.692326426506042 -0.525122165679932 2.132000207901 255 99 89
-0.686257719993591 -0.524877905845642 2.13100004196167 255 105 91
-0.676355600357056 -0.526115834712982 2.13600015640259 255 255 140
-0.671228468418121 -0.52661257982254 2.13800001144409 255 255 112
-0.665157675743103 -0.526371121406555 2.13700008392334 255 255 114
-0.658475697040558 -0.525637567043304 2.1340000629425 255 255 117
-0.652116417884827 -0.525151014328003 2.132000207901 255 255 123
-0.645465135574341 -0.524418532848358 2.12900018692017 255 255 125
-0.64033305644989 -0.5249183177948 2.13100004196167 255 255 127
-0.634297490119934 -0.524679720401764 2.13000011444092 255 255 130
-0.629448115825653 -0.525426983833313 2.13300013542175 255 255 133
-0.623413383960724 -0.525189399719238 2.132000207901 255 255 138
-0.617963850498199 -0.52544504404068 2.13300013542175 255 255 141
-0.612509191036224 -0.52570104598999 2.1340000629425 255 255 144
-0.607049584388733 -0.525957643985748 2.13499999046326 255 255 146
-0.60158497095108 -0.526214778423309 2.13600015640259 255 255 148
-0.594999432563782 -0.525486826896667 2.13300013542175 255 255 150
-0.588982820510864 -0.525252044200897 2.132000207901 255 255 152
-0.582698047161102 -0.524771332740784 2.13000011444092 255 255 155
-0.577236950397491 -0.525030016899109 2.13100004196167 255 255 155
-0.571502506732941 -0.525042772293091 2.13100004196167 255 255 156
-0.565768122673035 -0.525055944919586 2.13100004196167 255 255 158
-0.536845147609711 -0.524880349636078 2.13000011444092 240 135 105
-0.531113624572754 -0.524895429611206 2.13000011444092 255 134 111
-0.525382101535797 -0.524910807609558 2.13000011444092 253 128 101
-0.519406497478485 -0.524680018424988 2.12900018692017 255 133 105
-0.513194918632507 -0.524202942848206 2.12700009346008 255 136 105
-0.5069939494133 -0.523726105690002 2.125 255 135 104
-0.50151139497757 -0.523988902568817 2.12600016593933 255 149 118
-0.495090335607529 -0.523265957832336 2.1230001449585 255 141 114
-0.489146381616592 -0.523036241531372 2.12200021743774 255 143 116
-0.483435362577438 -0.523053050041199 2.12200021743774 255 139 112
-0.478174418210983 -0.523563086986542 2.12400007247925 255 138 111
-0.472457587718964 -0.523580253124237 2.12400007247925 255 138 109
-0.466520816087723 -0.52335113286972 2.1230001449585 255 145 114
-0.46080619096756 -0.52336859703064 2.1230001449585 255 148 110
-0.45530566573143 -0.523632764816284 2.12400007247925 255 141 106
-0.450222790241241 -0.5243901014328 2.12700009346008 255 142 113
-0.445750415325165 -0.525887250900269 2.13300013542175 255 147 119
-0.442276835441589 -0.528617382049561 2.14400005340576 247 131 125
-0.441593915224075 -0.534799635410309 2.16900014877319 242 144 155
-0.767826974391937 -0.527442991733551 2.11800003051758 253 111 88
-0.762460470199585 -0.527682304382324 2.11900019645691 255 108 90
-0.757447123527527 -0.528171479701996 2.12100005149841 255 104 84
-0.75171560049057 -0.528163492679596 2.12100005149841 255 104 84
-0.746689021587372 -0.528654515743256 2.1230001449585 255 109 89
-0.741653084754944 -0.529146313667297 2.125 255 105 85
-0.735914885997772 -0.529141008853912 2.125 255 103 86
-0.730521678924561 -0.529385507106781 2.12600016593933 255 105 89
-0.724783360958099 -0.529381930828094 2.12600016593933 255 98 85
-0.719046235084534 -0.529379069805145 2.12600016593933 255 94 83
-0.713645756244659 -0.52962601184845 2.12700009346008 255 96 85
-0.707908034324646 -0.529624700546265 2.12700009346008 255 96 85
-0.702171385288239 -0.529624104499817 2.12700009346008 255 100 89
-0.696435868740082 -0.529624402523041 2.12700009346008 255 101 90
-0.691025912761688 -0.529874324798584 2.12800002098084 255 103 93
-0.684323251247406 -0.529128909111023 2.125 255 102 88
-0.674135625362396 -0.530130326747894 2.12900018692017 255 255 140
-0.669026613235474 -0.530631959438324 2.13100004196167 255 255 112
-0.662973940372467 -0.530387222766876 2.13000011444092 255 255 116
-0.655693113803864 -0.529147088527679 2.125 255 255 118
-0.649051666259766 -0.528405606746674 2.12200021743774 255 255 125
-0.642426788806915 -0.527664721012115 2.11900019645691 255 255 130
-0.637621641159058 -0.528418362140656 2.12200021743774 255 255 126
-0.63190746307373 -0.528425633907318 2.12200021743774 255 255 125
-0.6264888048172 -0.528682410717011 2.1230001449585 255 255 133
-0.620480537414551 -0.528441727161407 2.12200021743774 255 255 138
-0.614767611026764 -0.528450548648834 2.12200021743774 255 255 146
-0.609342217445374 -0.528708875179291 2.1230001449585 255 255 144
-0.603911757469177 -0.52896773815155 2.12400007247925 255 255 145
-0.599039554595947 -0.529725193977356 2.12700009346008 255 255 146
-0.592756628990173 -0.529237747192383 2.125 255 255 147
-0.58703738451004 -0.529248952865601 2.125 255 255 149
-0.581044673919678 -0.529011487960815 2.12400007247925 255 255 149
-0.575599312782288 -0.529272496700287 2.125 254 255 151
-0.569612383842468 -0.529035866260529 2.12400007247925 254 255 152
-0.563100039958954 -0.528301417827606 2.12100005149841 255 255 156
-0.556603968143463 -0.527567267417908 2.11800003051758 255 255 155
-0.550904333591461 -0.527580738067627 2.11800003051758 255 255 154
-0.540014863014221 -0.528106927871704 2.12000012397766 198 170 85
-0.534561991691589 -0.528370440006256 2.12100005149841 255 135 108
-0.528605163097382 -0.528136074542999 2.12000012397766 255 132 109
-0.523146867752075 -0.528400242328644 2.12100005149841 254 128 104
-0.517439186573029 -0.528415501117706 2.12100005149841 255 131 104
-0.511972725391388 -0.528680205345154 2.12200021743774 255 141 114
-0.505069315433502 -0.527450263500214 2.11700010299683 255 137 110
-0.499372094869614 -0.527466297149658 2.11700010299683 255 138 114
-0.49297508597374 -0.526734948158264 2.11400008201599 255 139 114
-0.487285673618317 -0.526751339435577 2.11400008201599 255 137 112
-0.481595993041992 -0.526767909526825 2.11400008201599 255 139 114
-0.476581573486328 -0.527532279491425 2.11700010299683 255 146 117
-0.470883458852768 -0.527549207210541 2.11700010299683 255 139 108
-0.464745581150055 -0.527067840099335 2.11500000953674 255 143 112
-0.459052383899689 -0.527085065841675 2.11500000953674 255 139 105
-0.453787624835968 -0.527600824832916 2.11700010299683 254 140 106
-0.448300123214722 -0.527867555618286 2.11800003051758 255 144 115
-0.443015933036804 -0.528383612632751 2.12000012397766 255 143 111
-0.437926977872849 -0.529149055480957 2.1230001449585 250 135 106
-0.433432251214981 -0.530662357807159 2.12900018692017 255 147 122
-0.430913835763931 -0.534668505191803 2.14500021934509 255 150 128
-0.782064378261566 -0.531185925006866 2.1100001335144 236 117 106
-0.776721596717834 -0.531424224376678 2.11100006103516 250 101 93
-0.771375179290771 -0.531663656234741 2.11199998855591 255 98 89
-0.767112493515015 -0.532659113407135 2.11600017547607 253 91 78
-0.761030733585358 -0.532396912574768 2.11500000953674 255 96 80
-0.755313038825989 -0.532387375831604 2.11500000953674 255 103 87
-0.749596953392029 -0.532378792762756 2.11500000953674 255 100 84
-0.745289206504822 -0.533378005027771 2.11900019645691 254 94 77
-0.739215970039368 -0.533119440078735 2.11800003051758 255 96 79
-0.733495950698853 -0.533113539218903 2.11800003051758 255 108 92
-0.727433562278748 -0.532856702804565 2.11700010299683 255 101 88
-0.722059547901154 -0.533104121685028 2.11800003051758 255 103 90
-0.716343224048615 -0.533100724220276 2.11800003051758 255 94 83
-0.710963606834412 -0.533349812030792 2.11900019645691 255 95 86
-0.704913854598999 -0.533096134662628 2.11800003051758 255 104 93
-0.6998610496521 -0.533598482608795 2.12000012397766 255 101 88
-0.694470942020416 -0.533849775791168 2.12100005149841 255 102 86
-0.689076542854309 -0.534101903438568 2.12200021743774 255 107 93
-0.683033525943756 -0.533851325511932 2.12100005149841 255 105 89
-0.672232627868652 -0.534358978271484 2.1230001449585 255 255 140
-0.667139232158661 -0.534865498542786 2.125 255 255 111
-0.660790860652924 -0.534365952014923 2.1230001449585 255 255 116
-0.654145359992981 -0.533615231513977 2.12000012397766 255 255 115
-0.647516667842865 -0.532865107059479 2.11700010299683 255 255 117
-0.641207933425903 -0.532367348670959 2.11500000953674 255 255 118
-0.635511517524719 -0.532373547554016 2.11500000953674 255 255 110
-0.630113422870636 -0.532631993293762 2.11600017547607 255 255 110
-0.624415397644043 -0.532639384269714 2.11600017547607 254 255 112
-0.618132948875427 -0.532143771648407 2.11400008201599 255 255 129
-0.612441062927246 -0.532152116298676 2.11400008201599 255 255 137
-0.607610702514648 -0.532916188240051 2.11700010299683 255 255 141
-0.602195918560028 -0.533177316188812 2.11800003051758 255 255 143
-0.597339332103729 -0.533942401409149 2.12100005149841 255 255 143
-0.590793311595917 -0.533197522163391 2.11800003051758 255 255 146
-0.585368692874908 -0.533460080623627 2.11900019645691 255 255 148
-0.578844666481018 -0.532716035842896 2.11600017547607 255 255 149
-0.573691248893738 -0.533231198787689 2.11800003051758 255 255 152
-0.567454636096954 -0.532739639282227 2.11600017547607 254 255 152
-0.561494410037994 -0.532500267028809 2.11500000953674 255 255 154
-0.555276930332184 -0.532009482383728 2.11300015449524 255 255 158
-0.549590408802032 -0.532022595405579 2.11300015449524 255 255 158
-0.538472354412079 -0.532301545143127 2.11400008201599 224 206 120
-0.532531380653381 -0.532063901424408 2.11300015449524 255 135 108
-0.526346385478973 -0.531574606895447 2.11100006103516 255 132 108
-0.521405279636383 -0.53234475851059 2.11400008201599 255 132 105
-0.515716254711151 -0.532359778881073 2.11400008201599 255 133 106
-0.510509610176086 -0.532878637313843 2.11600017547607 255 133 106
-0.503860592842102 -0.531886696815491 2.11199998855591 255 134 110
-0.497940838336945 -0.53165066242218 2.11100006103516 255 134 110
-0.492026180028915 -0.531414687633514 2.1100001335144 255 137 112
-0.486347317695618 -0.531430780887604 2.1100001335144 255 142 115
-0.480440467596054 -0.531195223331451 2.10900020599365 255 141 114
-0.474989026784897 -0.531463623046875 2.1100001335144 255 142 111
-0.469309598207474 -0.531480252742767 2.1100001335144 255 143 112
-0.463410228490829 -0.531245172023773 2.10900020599365 255 143 109
-0.457298904657364 -0.530758321285248 2.10700011253357 254 140 106
-0.452055543661118 -0.53127920627594 2.10900020599365 255 147 113
-0.446589469909668 -0.531548380851746 2.1100001335144 255 157 123
-0.441117733716965 -0.531817555427551 2.11100006103516 255 153 121
-0.435227811336517 -0.531583070755005 2.1100001335144 255 146 117
-0.429750084877014 -0.53185248374939 2.11100006103516 255 150 122
-0.425070226192474 -0.533129870891571 2.11600017547607 253 143 119
-0.42095759510994 -0.535163223743439 2.12400007247925 254 147 126
-0.420125156641006 -0.541480302810669 2.14900016784668 255 151 154
-0.787792146205902 -0.536902070045471 2.1100001335144 192 110 97
-0.781708002090454 -0.536632537841797 2.10900020599365 247 90 80
-0.776366889476776 -0.536872804164886 2.1100001335144 255 94 85
-0.770656943321228 -0.536859691143036 2.1100001335144 253 88 79
-0.765673637390137 -0.537356317043304 2.11199998855591 255 92 82
-0.758882164955139 -0.536581993103027 2.10900020599365 255 93 82
-0.752822697162628 -0.536317348480225 2.10800004005432 255 102 89
-0.747833371162415 -0.536816895008087 2.1100001335144 252 91 75
-0.742834687232971 -0.537317335605621 2.11199998855591 255 100 84
-0.737128615379334 -0.537309885025024 2.11199998855591 255 102 86
-0.731770217418671 -0.537557661533356 2.11300015449524 255 100 87
-0.726407647132874 -0.537806391716003 2.11400008201599 255 97 86
-0.720018208026886 -0.537292659282684 2.11199998855591 255 98 87
-0.713640868663788 -0.536779761314392 2.1100001335144 255 97 86
-0.707946419715881 -0.536776602268219 2.1100001335144 255 98 87
-0.702252984046936 -0.536774039268494 2.1100001335144 252 91 78
-0.696890890598297 -0.537026822566986 2.11100006103516 255 100 84
-0.690869510173798 -0.536771476268768 2.1100001335144 255 103 87
-0.685828685760498 -0.537280142307281 2.11199998855591 255 104 88
-0.680455982685089 -0.537535071372986 2.11300015449524 255 106 88
-0.669696867465973 -0.538046956062317 2.11500000953674 255 255 147
-0.663682639598846 -0.53779524564743 2.11400008201599 255 255 113
-0.657985687255859 -0.537798464298248 2.11400008201599 255 255 112
-0.65167236328125 -0.537293612957001 2.11199998855591 255 255 114
-0.64506471157074 -0.5365349650383 2.10900020599365 255 255 114
-0.638776898384094 -0.536031246185303 2.10700011253357 255 255 115
-0.633702397346497 -0.536545753479004 2.10900020599365 255 255 116
-0.6283198595047 -0.536806523799896 2.1100001335144 255 255 121
-0.6223424077034 -0.536558985710144 2.10900020599365 255 255 126
-0.61607825756073 -0.536057472229004 2.10700011253357 255 255 135
-0.610694408416748 -0.53631979227066 2.10800004005432 255 255 140
-0.605879724025726 -0.537091553211212 2.11100006103516 255 255 140
-0.600480616092682 -0.53735488653183 2.11199998855591 255 255 141
-0.59535813331604 -0.537873208522797 2.11400008201599 255 255 143
-0.589109361171722 -0.537374258041382 2.11199998855591 255 255 143
-0.583700478076935 -0.537639081478119 2.11300015449524 255 255 148
-0.57746559381485 -0.537140905857086 2.11100006103516 255 255 149
-0.571512699127197 -0.536897718906403 2.1100001335144 255 255 152
-0.565565407276154 -0.536654889583588 2.10900020599365 255 255 153
-0.559623658657074 -0.536412358283997 2.10800004005432 254 255 152
-0.553687453269959 -0.536170303821564 2.10700011253357 255 255 158
-0.531005144119263 -0.536223292350769 2.10700011253357 251 127 103
-0.524586737155914 -0.535473883152008 2.10400009155273 255 129 107
-0.519417524337769 -0.535997211933136 2.10600018501282 255 131 107
-0.513749778270721 -0.536011874675751 2.10600018501282 255 132 108
-0.508323073387146 -0.536281228065491 2.10700011253357 255 131 104
-0.502175271511078 -0.535787284374237 2.10500001907349 255 138 111
-0.496038198471069 -0.535293638706207 2.10300016403198 255 137 113
-0.490378081798553 -0.535309255123138 2.10300016403198 255 138 107
-0.484717845916748 -0.535325050354004 2.10300016403198 255 142 111
-0.479057371616364 -0.535341024398804 2.10300016403198 255 145 114
-0.473171710968018 -0.535102665424347 2.10199999809265 255 145 111
-0.467513680458069 -0.535118997097015 2.10199999809265 255 147 113
-0.462075084447861 -0.535390079021454 2.10300016403198 255 151 117
-0.455979824066162 -0.534897565841675 2.1010000705719 254 144 110
-0.450109452009201 -0.534659743309021 2.10000014305115 255 151 117
-0.444667458534241 -0.534931302070618 2.1010000705719 255 147 113
-0.439428836107254 -0.535457611083984 2.10300016403198 255 147 113
-0.433766603469849 -0.535474717617035 2.10300016403198 255 151 117
-0.428104072809219 -0.53549200296402 2.10300016403198 255 150 118
-0.422240346670151 -0.535254597663879 2.10199999809265 255 149 117
-0.416976273059845 -0.53578132390976 2.10400009155273 255 160 128
-0.412874013185501 -0.537836015224457 2.11199998855591 253 153 120
-0.411234766244888 -0.543201625347137 2.13300013542175 255 157 128
-0.789763808250427 -0.540049970149994 2.10000014305115 249 99 87
-0.786314845085144 -0.541576027870178 2.10600018501282 249 87 74
-0.780611038208008 -0.541560053825378 2.10600018501282 255 85 73
-0.775277078151703 -0.54180234670639 2.10700011253357 255 90 78
-0.769574165344238 -0.541788399219513 2.10700011253357 255 92 82
-0.764235556125641 -0.542032659053802 2.10800004005432 255 90 84
-0.757453799247742 -0.54124927520752 2.10500001907349 255 95 89
-0.751404225826263 -0.540981352329254 2.10400009155273 255 91 82
-0.746070325374603 -0.541228413581848 2.10500001907349 255 90 80
-0.740732610225677 -0.541476547718048 2.10600018501282 255 99 83
-0.735390901565552 -0.541725516319275 2.10700011253357 255 96 80
-0.730045020580292 -0.541975319385529 2.10800004005432 255 99 88
-0.724695146083832 -0.542226076126099 2.10900020599365 255 96 85
-0.718318402767181 -0.541706323623657 2.10700011253357 249 87 76
-0.711953699588776 -0.541187465190887 2.10500001907349 252 89 80
-0.706607580184937 -0.541440784931183 2.10600018501282 251 89 78
-0.700924158096313 -0.54143762588501 2.10600018501282 255 104 88
-0.695241868495941 -0.541435360908508 2.10600018501282 255 102 86
-0.688905894756317 -0.540919661521912 2.10400009155273 255 103 87
-0.683231055736542 -0.54091888666153 2.10400009155273 255 105 87
-0.677879095077515 -0.541175901889801 2.10500001907349 255 108 88
-0.666528522968292 -0.541178047657013 2.10500001907349 255 255 148
-0.660540461540222 -0.540922939777374 2.10400009155273 255 255 106
-0.655181109905243 -0.541182816028595 2.10500001907349 255 255 106
-0.649200022220612 -0.540929079055786 2.10400009155273 255 255 111
-0.642919063568115 -0.540418922901154 2.10199999809265 255 255 113
-0.636649549007416 -0.539909303188324 2.10000014305115 255 255 119
-0.631292879581451 -0.540171682834625 2.1010000705719 255 255 114
-0.626526892185211 -0.540948808193207 2.10400009155273 255 255 113
-0.621155083179474 -0.541212201118469 2.10500001907349 255 255 129
-0.61490124464035 -0.540704965591431 2.10300016403198 255 255 133
-0.609238028526306 -0.540712475776672 2.10300016403198 255 255 138
-0.604436218738556 -0.541491866111755 2.10600018501282 255 255 140
-0.599618673324585 -0.542271614074707 2.10900020599365 255 255 140
-0.593940615653992 -0.542280673980713 2.10900020599365 255 255 141
-0.587704718112946 -0.54177588224411 2.10700011253357 255 255 143
-0.581480085849762 -0.541271507740021 2.10500001907349 255 255 148
-0.575266480445862 -0.54076761007309 2.10300016403198 255 255 149
-0.569605588912964 -0.540778458118439 2.10300016403198 255 255 153
-0.563944876194 -0.540789663791656 2.10300016403198 255 255 155
-0.558815240859985 -0.54131555557251 2.10500001907349 255 255 157
-0.535388708114624 -0.540594160556793 2.10199999809265 248 246 152
-0.529227316379547 -0.540093243122101 2.10000014305115 249 125 101
-0.523076772689819 -0.539592504501343 2.09800004959106 255 132 110
-0.517430186271667 -0.539606511592865 2.09800004959106 254 126 100
-0.511783599853516 -0.539620757102966 2.09800004959106 255 134 107
-0.506136953830719 -0.539635241031647 2.09800004959106 255 133 105
-0.500967383384705 -0.540164530277252 2.10000014305115 255 135 107
-0.494843512773514 -0.539665162563324 2.09800004959106 255 136 109
-0.489429831504822 -0.539937674999237 2.0990002155304 254 134 103
-0.483780145645142 -0.539953112602234 2.0990002155304 255 141 107
-0.478358060121536 -0.540226101875305 2.10000014305115 255 145 111
-0.472255140542984 -0.539727509021759 2.09800004959106 255 152 118
-0.466385304927826 -0.539486289024353 2.09700012207031 255 147 113
-0.460520625114441 -0.539245307445526 2.09600019454956 255 153 119
-0.454227030277252 -0.538489818572998 2.09300017356873 255 147 113
-0.4485924243927 -0.538506329059601 2.09300017356873 255 147 113
-0.443169146776199 -0.538780272006989 2.09400010108948 255 150 116
-0.438158184289932 -0.539568960666656 2.09700012207031 255 154 120
-0.432512015104294 -0.539585828781128 2.09700012207031 255 155 121
-0.426865488290787 -0.539602816104889 2.09700012207031 255 156 121
-0.421218782663345 -0.539619863033295 2.09700012207031 255 155 120
-0.415373593568802 -0.539379715919495 2.09600019454956 255 157 122
-0.409924417734146 -0.539654314517975 2.09700012207031 255 152 117
-0.405626207590103 -0.541472971439362 2.10400009155273 255 155 120
-0.402240514755249 -0.544578671455383 2.11600017547607 253 154 124
-0.401413351297379 -0.551287770271301 2.14200019836426 253 152 159
-0.798498094081879 -0.543946743011475 2.09300017356873 200 116 102
-0.793580234050751 -0.544446587562561 2.09500002861023 234 99 86
-0.789029538631439 -0.545207321643829 2.09800004959106 255 97 81
-0.784838080406189 -0.546229004859924 2.10199999809265 255 98 83
-0.779144108295441 -0.546212255954742 2.10199999809265 255 88 73
-0.77345198392868 -0.546196579933167 2.10199999809265 255 89 77
-0.767396509647369 -0.545922100543976 2.1010000705719 255 96 87
-0.761710464954376 -0.545908570289612 2.1010000705719 255 91 85
-0.756026268005371 -0.545895874500275 2.1010000705719 249 81 75
-0.749629378318787 -0.545364618301392 2.0990002155304 253 87 82
-0.744308114051819 -0.545613765716553 2.10000014305115 255 93 84
-0.737576007843018 -0.544824540615082 2.09700012207031 255 100 87
-0.732955694198608 -0.545595169067383 2.10000014305115 255 98 82
-0.72693532705307 -0.545327484607697 2.0990002155304 255 97 86
-0.722296059131622 -0.546099841594696 2.10199999809265 255 95 84
-0.715937435626984 -0.545574009418488 2.10000014305115 255 97 84
-0.710267245769501 -0.545568764209747 2.10000014305115 255 100 89
-0.704598188400269 -0.545564234256744 2.10000014305115 255 98 85
-0.698930203914642 -0.545560538768768 2.10000014305115 255 100 84
-0.693263351917267 -0.545557618141174 2.10000014305115 255 101 85
-0.68694269657135 -0.545035898685455 2.09800004959106 255 105 87
-0.681283235549927 -0.54503458738327 2.09800004959106 255 98 82
-0.674980819225311 -0.544514417648315 2.09600019454956 255 109 85
-0.66431051492691 -0.545034885406494 2.09800004959106 255 255 144
-0.658654749393463 -0.545036435127258 2.09800004959106 255 255 101
-0.652999639511108 -0.545038640499115 2.09800004959106 255 255 99
-0.646419644355774 -0.544262051582336 2.09500002861023 255 255 108
-0.640162348747253 -0.543745994567871 2.09300017356873 255 255 113
-0.633916318416595 -0.543230473995209 2.09100008010864 255 255 119
-0.628883838653564 -0.543754756450653 2.09300017356873 255 255 115
-0.623840987682343 -0.54427969455719 2.09500002861023 255 255 113
-0.619083106517792 -0.545064926147461 2.09800004959106 255 255 138
