0.964477479457855 -0.452998399734497 2.20800018310547 255 137 118
0.970934808254242 -0.453223198652267 2.20900011062622 255 134 118
0.976516246795654 -0.453038901090622 2.20800018310547 255 134 118
0.984320282936096 -0.453881651163101 2.21200013160706 255 137 123
0.989015400409698 -0.453289389610291 2.20900011062622 255 133 119
0.993697762489319 -0.45269837975502 2.20600008964539 255 131 117
0.998820126056671 -0.452313721179962 2.2039999961853 255 128 118
1.00621485710144 -0.452956557273865 2.20700001716614 255 130 118
1.01225364208221 -0.452984988689423 2.20700001716614 252 124 110
1.01737356185913 -0.452604353427887 2.20500016212463 255 127 113
1.02202212810516 -0.452019602060318 2.2020001411438 255 131 117
1.0285257101059 -0.452257394790649 2.20300006866455 254 124 110
1.03409969806671 -0.452086001634598 2.2020001411438 255 135 123
1.04250657558441 -0.453147947788239 2.20700001716614 255 132 120
1.04856956005096 -0.45318478345871 2.20700001716614 253 118 106
1.05607044696808 -0.453839153051376 2.21000003814697 255 123 110
1.06118941307068 -0.453468292951584 2.20800018310547 255 122 109
1.06678521633148 -0.453304201364517 2.20700001716614 254 122 104
1.0743248462677 -0.453963339328766 2.21000003814697 255 128 110
1.08188593387604 -0.454624056816101 2.21300005912781 255 127 109
1.08848512172699 -0.454875618219376 2.21399998664856 255 122 104
1.09064519405365 -0.453279584646225 2.20600008964539 255 122 107
1.09425806999207 -0.452301353216171 2.20100021362305 255 125 112
1.10034811496735 -0.452352076768875 2.20100021362305 255 121 108
1.10895681381226 -0.45343217253685 2.20600008964539 255 123 112
1.11456620693207 -0.453280836343765 2.20500016212463 255 118 107
1.11915922164917 -0.452719956636429 2.2020001411438 255 118 107
1.12476336956024 -0.452571898698807 2.20100021362305 255 125 112
1.13242304325104 -0.453248143196106 2.2039999961853 254 116 103
1.13907253742218 -0.453515022993088 2.20500016212463 255 126 113
1.14469480514526 -0.453372299671173 2.2039999961853 255 117 104
1.15136218070984 -0.453642904758453 2.20500016212463 255 117 104
1.15804183483124 -0.453915417194366 2.20600008964539 255 118 105
1.16367793083191 -0.453778326511383 2.20500016212463 255 115 102
1.16878485679626 -0.453437209129334 2.20300006866455 255 120 108
1.17495393753052 -0.453509628772736 2.20300006866455 255 115 104
1.18434715270996 -0.454819440841675 2.20900011062622 255 116 105
1.18731391429901 -0.453660488128662 2.20300006866455 255 116 104
1.19404637813568 -0.453944861888886 2.2039999961853 255 121 109
1.19915866851807 -0.453613430261612 2.2020001411438 255 119 104
1.20919334888458 -0.455138236284256 2.20900011062622 255 116 101
1.212122797966 -0.453986674547195 2.20300006866455 255 119 104
1.2177916765213 -0.453867435455322 2.2020001411438 255 119 107
1.21957170963287 -0.45230707526207 2.19400000572205 255 115 103
1.2263435125351 -0.452604204416275 2.19500017166138 255 118 106
1.23425197601318 -0.453316003084183 2.19800019264221 255 111 99
1.24444389343262 -0.454855471849442 2.20500016212463 255 110 98
1.2518482208252 -0.455366194248199 2.20700001716614 255 111 97
1.26212310791016 -0.45691129565239 2.21399998664856 255 117 103
1.26729130744934 -0.456601709127426 2.21200013160706 255 116 104
1.27073001861572 -0.455674856901169 2.20700001716614 255 109 97
1.27414953708649 -0.454749941825867 2.2020001411438 252 111 102
1.28162062168121 -0.455272942781448 2.2039999961853 251 148 126
0.78321373462677 -0.45781072974205 2.20300006866455 255 162 153
0.788802564144135 -0.457594990730286 2.2020001411438 250 144 126
0.889652907848358 -0.457372635602951 2.20100021362305 255 255 159
0.895214855670929 -0.457171946763992 2.20000004768372 255 255 159
0.900773644447327 -0.456972301006317 2.19900012016296 254 255 146
0.905916810035706 -0.456565767526627 2.19700002670288 255 255 153
0.913126766681671 -0.457199454307556 2.20000004768372 255 255 154
0.920355319976807 -0.457834154367447 2.20300006866455 255 255 156
0.925500333309174 -0.457430869340897 2.20100021362305 255 255 158
0.931060016155243 -0.457236438989639 2.20000004768372 255 255 159
0.937042832374573 -0.45725092291832 2.20000004768372 255 255 158
0.948585569858551 -0.457075506448746 2.19900012016296 247 137 103
0.955876350402832 -0.457717061042786 2.2020001411438 255 139 116
0.961875975131989 -0.457736194133759 2.2020001411438 255 138 119
0.969636738300323 -0.458588004112244 2.20600008964539 255 130 111
0.973442137241364 -0.457570195198059 2.20100021362305 251 125 111
0.979448437690735 -0.457592993974686 2.20100021362305 255 133 119
0.984562575817108 -0.457201242446899 2.19900012016296 255 130 118
0.98966920375824 -0.456810653209686 2.19700002670288 255 133 121
0.996581137180328 -0.457253128290176 2.19900012016296 255 131 119
1.00305163860321 -0.457488983869553 2.20000004768372 255 128 116
1.00998997688293 -0.457934200763702 2.2020001411438 255 136 122
1.01463603973389 -0.457340985536575 2.19900012016296 255 138 124
1.01741290092468 -0.455917030572891 2.19200015068054 255 129 115
1.02482438087463 -0.456574410200119 2.19500017166138 255 128 112
1.03084743022919 -0.456609129905701 2.19500017166138 255 125 112
1.04065370559692 -0.458309680223465 2.20300006866455 255 130 117
1.0457569360733 -0.457931399345398 2.20100021362305 252 117 105
1.05372071266174 -0.458802908658981 2.20500016212463 255 123 110
1.05738544464111 -0.457803279161453 2.20000004768372 255 120 107
1.06151080131531 -0.457013159990311 2.19600009918213 255 126 108
1.06853556632996 -0.45747321844101 2.19800019264221 255 126 108
1.07704269886017 -0.458559274673462 2.20300006866455 255 129 109
1.08459937572479 -0.459230959415436 2.20600008964539 255 128 109
1.08673894405365 -0.457614123821259 2.19800019264221 255 127 109
1.09132528305054 -0.457039713859558 2.19500017166138 255 121 106
1.09690046310425 -0.456883311271667 2.19400000572205 255 126 111
1.10649728775024 -0.458394736051559 2.20100021362305 255 124 111
1.11007249355316 -0.457408636808395 2.19600009918213 255 116 105
1.11667501926422 -0.457673907279968 2.19700002670288 255 122 111
1.12175607681274 -0.457316070795059 2.19500017166138 255 118 103
1.12785959243774 -0.457376599311829 2.19500017166138 255 119 104
1.13396918773651 -0.457438945770264 2.19500017166138 255 118 105
1.14008486270905 -0.457503080368042 2.19500017166138 255 120 107
1.14881789684296 -0.45861142873764 2.20000004768372 255 115 102
1.156010389328 -0.459096550941467 2.2020001411438 249 109 96
1.16058158874512 -0.458541005849838 2.19900012016296 255 120 107
1.16620433330536 -0.458404421806335 2.19800019264221 255 118 106
1.17182791233063 -0.458269655704498 2.19700002670288 255 114 102
1.18067049980164 -0.459388613700867 2.2020001411438 254 111 99
1.18469727039337 -0.458631992340088 2.19800019264221 255 115 103
1.19087600708008 -0.458711922168732 2.19800019264221 255 113 98
1.19542860984802 -0.458167731761932 2.19500017166138 255 120 105
1.20380365848541 -0.459086805582047 2.19900012016296 255 114 102
1.20835781097412 -0.458546698093414 2.19600009918213 255 118 103
1.21234953403473 -0.457799643278122 2.19200015068054 255 118 103
1.21521520614624 -0.456636697053909 2.18600010871887 255 112 97
1.22196638584137 -0.456937998533249 2.18700003623962 255 113 98
1.22985458374023 -0.457659602165222 2.19000005722046 255 117 105
1.2417197227478 -0.459846884012222 2.20000004768372 255 110 98
1.24854493141174 -0.460155785083771 2.20100021362305 255 105 91
1.2559552192688 -0.460676282644272 2.20300006866455 255 110 98
1.25880193710327 -0.459526002407074 2.19700002670288 250 100 88
1.26392769813538 -0.459214508533478 2.19500017166138 255 113 99
1.27194476127625 -0.459951490163803 2.19800019264221 255 109 97
1.28173291683197 -0.461319118738174 2.2039999961853 242 99 78
0.794019281864166 -0.463120490312576 2.20000004768372 253 162 132
0.806270122528076 -0.463319569826126 2.20100021362305 255 233 158
0.886021971702576 -0.461436569690704 2.19200015068054 255 255 157
0.891560614109039 -0.461233764886856 2.19100022315979 255 255 155
0.897505581378937 -0.461242467164993 2.19100022315979 255 255 153
0.90304034948349 -0.461041659116745 2.19000005722046 255 255 146
0.910232305526733 -0.461683988571167 2.19300007820129 255 255 152
0.91660737991333 -0.461906373500824 2.19400000572205 255 255 152
0.923411011695862 -0.462340444326401 2.19600009918213 255 255 156
0.941330432891846 -0.462386012077332 2.19600009918213 243 162 114
0.946446299552917 -0.46198233962059 2.19400000572205 252 139 110
0.952856540679932 -0.462211579084396 2.19500017166138 255 137 116
0.958401441574097 -0.462020844221115 2.19400000572205 255 140 121
0.96570211648941 -0.462673664093018 2.19700002670288 255 132 116
0.969926416873932 -0.461853593587875 2.19300007820129 251 123 109
0.974577069282532 -0.461245268583298 2.19000005722046 254 124 110
0.979662477970123 -0.460848838090897 2.18800020217896 254 123 111
0.984740316867828 -0.460453599691391 2.18600010871887 254 126 112
0.994342744350433 -0.462166100740433 2.19400000572205 255 130 116
1.00171279907227 -0.46282684803009 2.19700002670288 255 133 119
1.00864434242249 -0.463278383016586 2.19900012016296 255 138 122
1.01189935207367 -0.462045848369598 2.19300007820129 255 130 114
1.01419687271118 -0.460393100976944 2.18500018119812 255 133 117
1.02112364768982 -0.460848689079285 2.18700003623962 255 128 112
1.02806544303894 -0.461305797100067 2.18900012969971 255 125 109
1.03785681724548 -0.463029026985168 2.19700002670288 255 129 113
1.04389536380768 -0.46306774020195 2.19700002670288 255 128 112
1.05232775211334 -0.464162021875381 2.2020001411438 255 125 112
1.05598568916321 -0.463149845600128 2.19700002670288 255 123 107
1.06058740615845 -0.462560653686523 2.19400000572205 255 132 114
1.06371915340424 -0.461340516805649 2.18800020217896 255 123 105
1.07073366641998 -0.461808562278748 2.19000005722046 255 125 105
1.077272772789 -0.462067514657974 2.19100022315979 255 123 103
1.08134996891022 -0.461273431777954 2.18700003623962 255 121 103
1.08789658546448 -0.461535662412643 2.18800020217896 255 123 105
1.09495389461517 -0.462010473012924 2.19000005722046 255 117 102
1.10403871536255 -0.463331133127213 2.19600009918213 255 117 102
1.10810708999634 -0.46254363656044 2.19200015068054 255 123 108
1.11419224739075 -0.462601900100708 2.19200015068054 253 115 100
1.11823904514313 -0.461817681789398 2.18800020217896 255 124 106
1.12381076812744 -0.461668312549591 2.18700003623962 255 119 101
1.12835001945496 -0.461098432540894 2.18400001525879 255 117 102
1.13651478290558 -0.462008386850357 2.18800020217896 255 121 106
1.14157462120056 -0.46165332198143 2.18600010871887 255 120 105
1.14925503730774 -0.462356120347977 2.18900012969971 255 122 109
1.15748643875122 -0.463272303342819 2.19300007820129 255 121 109
1.16627788543701 -0.464402079582214 2.19800019264221 255 120 108
1.17297041416168 -0.464688807725906 2.19900012016296 255 115 103
1.17753100395203 -0.464132308959961 2.19600009918213 255 114 102
1.18046474456787 -0.462943434715271 2.19000005722046 255 116 104
1.18391406536102 -0.461967647075653 2.18500018119812 255 118 106
1.18897664546967 -0.461627990007401 2.18300008773804 255 115 104
1.19841527938843 -0.462982296943665 2.18900012969971 255 110 102
1.20404374599457 -0.462858498096466 2.18800020217896 255 106 96
1.2091212272644 -0.46252515912056 2.18600010871887 255 115 105
1.21141588687897 -0.461135804653168 2.17900013923645 255 114 104
1.21814942359924 -0.461441397666931 2.1800000667572 254 104 92
1.22545874118805 -0.461961090564728 2.18200016021729 255 109 97
1.23730373382568 -0.464177340269089 2.19200015068054 255 108 94
1.24467575550079 -0.464702397584915 2.19400000572205 255 103 87
1.25092816352844 -0.464806288480759 2.19400000572205 254 102 88
1.25375175476074 -0.463641345500946 2.18800020217896 255 103 89
1.26230895519257 -0.4645976126194 2.19200015068054 255 106 89
1.27089869976044 -0.46555683016777 2.19600009918213 255 108 94
1.27486848831177 -0.464822590351105 2.19200015068054 255 110 98
1.27824056148529 -0.463878273963928 2.18700003623962 255 113 101
1.28688037395477 -0.464845567941666 2.19100022315979 255 126 114
1.30086541175842 -0.467725813388824 2.2039999961853 226 102 97
0.79148656129837 -0.467576622962952 2.19300007820129 251 161 153
0.798137307167053 -0.467997312545776 2.19500017166138 234 135 116
0.804067313671112 -0.467992335557938 2.19500017166138 246 143 121
0.809629499912262 -0.467774868011475 2.19400000572205 251 144 120
0.815559327602386 -0.4677714407444 2.19400000572205 255 172 133
0.878077507019043 -0.466297745704651 2.18700003623962 255 255 154
0.883199989795685 -0.465878635644913 2.18500018119812 255 255 157
0.889127552509308 -0.465886950492859 2.18500018119812 255 255 159
0.895057260990143 -0.465896248817444 2.18500018119812 255 255 154
0.900164425373077 -0.4654800593853 2.18300008773804 255 255 154
0.905678272247314 -0.46527823805809 2.18200016021729 255 255 149
0.912024557590485 -0.465503931045532 2.18300008773804 255 255 153
0.920060813426971 -0.466583728790283 2.18800020217896 255 255 145
0.928126752376556 -0.46766471862793 2.19300007820129 255 255 149
0.940918982028961 -0.468124181032181 2.19500017166138 239 152 112
0.945170700550079 -0.467289328575134 2.19100022315979 253 141 117
0.951139748096466 -0.467308729887009 2.19100022315979 255 140 119
0.956674873828888 -0.467115968465805 2.19000005722046 253 128 109
0.964405596256256 -0.467991024255753 2.19400000572205 255 132 116
0.968622863292694 -0.467160850763321 2.19000005722046 255 129 115
0.973266541957855 -0.466545253992081 2.18700003623962 255 129 115
0.977897226810455 -0.465930819511414 2.18400001525879 255 129 117
0.982514977455139 -0.465317666530609 2.18099999427795 255 129 117
0.991198778152466 -0.466626048088074 2.18700003623962 255 127 113
0.998095154762268 -0.467082411050797 2.18900012969971 255 132 116
1.00454747676849 -0.467326760292053 2.19000005722046 253 125 109
1.00731754302979 -0.465865343809128 2.18300008773804 254 124 108
1.01098167896271 -0.464832007884979 2.1780002117157 252 122 106
1.01882445812225 -0.465720802545547 2.18200016021729 254 122 106
1.0266934633255 -0.466611206531525 2.18600010871887 255 134 118
1.03647816181183 -0.468357115983963 2.19400000572205 255 126 110
1.04250979423523 -0.468396842479706 2.19400000572205 255 130 114
1.05093574523926 -0.469505816698074 2.19900012016296 255 127 111
1.05458676815033 -0.468481093645096 2.19400000572205 255 126 108
1.05966532230377 -0.468098431825638 2.19200015068054 255 124 106
1.06036186218262 -0.465795159339905 2.18099999427795 255 126 106
1.06686997413635 -0.466056168079376 2.18200016021729 255 129 109
1.07289683818817 -0.466105163097382 2.18200016021729 255 131 111
1.07892882823944 -0.466155886650085 2.18200016021729 255 129 111
1.08446860313416 -0.465994536876678 2.18099999427795 255 124 109
1.09050834178925 -0.46604859828949 2.18099999427795 255 119 106
1.09806168079376 -0.466745555400848 2.18400001525879 254 116 103
1.10513186454773 -0.467230618000031 2.18600010871887 255 128 113
1.11120212078094 -0.467290073633194 2.18600010871887 255 119 104
1.11778926849365 -0.46756511926651 2.18700003623962 255 124 106
1.12181842327118 -0.466772973537445 2.18300008773804 255 119 101
1.12789845466614 -0.466837882995605 2.18300008773804 255 120 102
1.13294541835785 -0.466476798057556 2.18099999427795 255 119 104
1.13798773288727 -0.466117590665817 2.17900013923645 255 119 104
1.14512550830841 -0.466615945100784 2.18099999427795 255 122 109
1.15386474132538 -0.467758357524872 2.18600010871887 255 113 101
1.16210806369781 -0.468689054250717 2.19000005722046 251 109 94
1.16771328449249 -0.468551814556122 2.18900012969971 255 117 102
1.17224776744843 -0.467988431453705 2.18600010871887 255 113 101
1.17623341083527 -0.467212706804276 2.18200016021729 255 118 103
1.18128764629364 -0.46686714887619 2.1800000667572 255 119 107
1.18688297271729 -0.466737776994705 2.17900013923645 255 111 101
1.19302761554718 -0.46682471036911 2.17900013923645 252 103 95
1.19918012619019 -0.466913759708405 2.17900013923645 255 107 97
1.2058938741684 -0.467219442129135 2.1800000667572 249 98 90
1.21095371246338 -0.466884344816208 2.1780002117157 255 107 97
1.21768665313721 -0.467194527387619 2.17900013923645 255 102 92
1.22387218475342 -0.467292726039886 2.17900013923645 252 100 88
1.23458230495453 -0.469109147787094 2.18700003623962 255 106 95
1.24024081230164 -0.468997895717621 2.18600010871887 255 111 97
1.24704301357269 -0.469318121671677 2.18700003623962 255 105 93
1.25042164325714 -0.468353003263474 2.18200016021729 255 110 96
1.25896453857422 -0.469322174787521 2.18600010871887 255 109 95
1.26638233661652 -0.469864726066589 2.18800020217896 255 110 96
1.27091300487518 -0.469336032867432 2.18500018119812 255 112 100
1.27426731586456 -0.468379884958267 2.1800000667572 252 101 91
1.28347706794739 -0.469574928283691 2.18500018119812 255 112 100
1.29744851589203 -0.472492903470993 2.19800019264221 250 112 99
1.31150531768799 -0.475415050983429 2.2110002040863 217 130 136
0.796314060688019 -0.472853273153305 2.19000005722046 245 154 152
0.801498770713806 -0.472416907548904 2.18800020217896 255 146 128
0.807411849498749 -0.472413122653961 2.18800020217896 255 144 124
0.813697993755341 -0.472626030445099 2.18900012969971 255 144 124
0.819241940975189 -0.472407966852188 2.18800020217896 251 141 117
0.824404776096344 -0.471974730491638 2.18600010871887 255 144 116
0.829558253288269 -0.471542418003082 2.18400001525879 253 147 117
0.835085034370422 -0.471326917409897 2.18300008773804 246 141 109
0.841763615608215 -0.47175994515419 2.18500018119812 246 154 95
0.848454594612122 -0.472193866968155 2.18700003623962 247 160 97
0.869762003421783 -0.470916211605072 2.18099999427795 233 210 117
0.876478672027588 -0.471354961395264 2.18300008773804 242 230 127
0.881995439529419 -0.471146911382675 2.18200016021729 253 251 156
0.90403026342392 -0.470324993133545 2.1780002117157 255 255 159
0.90911340713501 -0.469906181097031 2.17600011825562 255 255 150
0.917131721973419 -0.471000164747238 2.18099999427795 255 255 146
0.924756646156311 -0.471879422664642 2.18500018119812 255 255 150
0.939222395420074 -0.47320955991745 2.19100022315979 241 153 111
0.943895578384399 -0.472580581903458 2.18800020217896 251 137 112
0.948121190071106 -0.471736699342728 2.18400001525879 255 137 116
0.953201830387115 -0.47132608294487 2.18200016021729 255 131 112
0.960032641887665 -0.471780598163605 2.18400001525879 253 126 107
0.964666247367859 -0.471156388521194 2.18099999427795 255 129 113
0.970176756381989 -0.470965504646301 2.1800000667572 255 129 115
0.974789559841156 -0.470343738794327 2.17700004577637 255 124 112
0.980740964412689 -0.470371454954147 2.17700004577637 255 126 114
0.988961935043335 -0.471480846405029 2.18200016021729 255 128 116
0.996302127838135 -0.472159624099731 2.18500018119812 255 128 115
1.00182735919952 -0.471975415945053 2.18400001525879 255 128 115
1.00504398345947 -0.470712035894394 2.1780002117157 255 131 115
1.00823140144348 -0.46944984793663 2.17200016975403 255 125 109
1.01559233665466 -0.470134317874908 2.17500019073486 253 121 105
1.02344357967377 -0.471036493778229 2.17900013923645 255 124 108
1.03179335594177 -0.472156465053558 2.18400001525879 255 124 108
1.03779923915863 -0.472197234630585 2.18400001525879 255 125 109
1.04524314403534 -0.472888112068176 2.18700003623962 255 122 106
1.05078542232513 -0.472715765237808 2.18600010871887 255 128 112
1.05632698535919 -0.472544938325882 2.18500018119812 255 129 111
1.05895054340363 -0.471078008413315 2.1780002117157 255 125 105
1.06447386741638 -0.470910102128983 2.17700004577637 255 127 107
1.07048869132996 -0.470960289239883 2.17700004577637 255 125 107
1.07502496242523 -0.470363050699234 2.17400002479553 255 127 112
1.08054435253143 -0.47020012140274 2.17300009727478 250 111 100
1.08706378936768 -0.47047170996666 2.17400002479553 255 116 107
1.09510242938995 -0.471394419670105 2.1780002117157 255 116 107
1.10215771198273 -0.471886098384857 2.1800000667572 255 120 107
1.10872137546539 -0.472163259983063 2.18099999427795 255 121 106
1.11529660224915 -0.472442328929901 2.18200016021729 255 124 106
1.12034153938293 -0.472073674201965 2.1800000667572 255 120 102
1.12486469745636 -0.471490144729614 2.17700004577637 255 121 103
1.12989711761475 -0.471125036478043 2.17500019073486 255 125 107
1.13544654846191 -0.470978260040283 2.17400002479553 255 119 102
1.14204752445221 -0.471266835927963 2.17500019073486 255 114 99
1.14918828010559 -0.471774101257324 2.17700004577637 255 117 105
1.15634727478027 -0.472283601760864 2.17900013923645 255 113 101
1.16085648536682 -0.471711277961731 2.17600011825562 255 110 98
1.16589272022247 -0.471357673406601 2.17400002479553 255 110 98
1.16930770874023 -0.470355480909348 2.16900014877319 253 105 91
1.17812061309814 -0.47152391076088 2.17400002479553 255 107 93
1.18588006496429 -0.472261041402817 2.17700004577637 255 110 98
1.19202136993408 -0.472349673509598 2.17700004577637 255 109 97
1.19706988334656 -0.472006529569626 2.17500019073486 252 102 90
1.20377457141876 -0.472316592931747 2.17600011825562 255 103 93
1.20882499217987 -0.471977680921555 2.17400002479553 255 105 98
1.21499013900757 -0.472075253725052 2.17400002479553 255 100 93
1.22116374969482 -0.472175180912018 2.17400002479553 255 101 94
1.23016905784607 -0.473363637924194 2.17900013923645 255 107 97
1.23637437820435 -0.473468601703644 2.17900013923645 255 108 98
1.24486982822418 -0.474445223808289 2.18300008773804 255 106 96
1.2488124370575 -0.473685741424561 2.17900013923645 255 105 93
1.25504553318024 -0.473798096179962 2.17900013923645 255 108 96
1.25897300243378 -0.47304305434227 2.17500019073486 255 109 97
1.26463210582733 -0.472942709922791 2.17400002479553 255 111 99
1.27146482467651 -0.473280191421509 2.17500019073486 255 107 97
1.28418779373169 -0.475796848535538 2.18600010871887 255 108 100
1.29934620857239 -0.479188412427902 2.20100021362305 253 113 100
1.3151947259903 -0.482802182435989 2.21700000762939 240 129 125
0.798564195632935 -0.476585119962692 2.1800000667572 243 162 158
0.804087519645691 -0.476363211870193 2.17900013923645 247 140 126
0.809606671333313 -0.476142078638077 2.1780002117157 255 142 121
0.816245019435883 -0.476577579975128 2.1800000667572 255 144 119
0.821387052536011 -0.476139485836029 2.1780002117157 255 141 120
0.82765930891037 -0.476358085870743 2.17900013923645 255 141 121
0.832790732383728 -0.47592169046402 2.17700004577637 255 146 126
0.839454174041748 -0.476360738277435 2.17900013923645 255 141 121
0.845741868019104 -0.476581960916519 2.1800000667572 255 144 124
0.852427423000336 -0.477022767066956 2.18200016021729 255 144 124
0.857945561408997 -0.476808696985245 2.18099999427795 255 143 119
0.863856196403503 -0.476814150810242 2.18099999427795 255 138 113
0.869768738746643 -0.476820647716522 2.18099999427795 255 139 118
0.875281810760498 -0.476609528064728 2.1800000667572 255 144 124
0.879982948303223 -0.475962072610855 2.17700004577637 255 148 123
0.885077059268951 -0.475534319877625 2.17500019073486 255 148 120
0.891391217708588 -0.475763499736786 2.17600011825562 255 153 125
0.896063923835754 -0.475119173526764 2.17300009727478 255 148 119
0.901967823505402 -0.475131869316101 2.17300009727478 255 165 121
0.906620562076569 -0.474489659070969 2.17000007629395 255 171 126
0.935382962226868 -0.477180421352386 2.18200016021729 240 148 107
0.940464317798615 -0.476762682199478 2.1800000667572 254 138 113
0.945103406906128 -0.476127415895462 2.17700004577637 255 136 117
0.949729263782501 -0.475493401288986 2.17400002479553 254 129 110
0.955220997333527 -0.475298017263412 2.17300009727478 255 128 109
0.959383368492126 -0.47444760799408 2.16900014877319 255 135 116
0.964862406253815 -0.474254757165909 2.16800022125244 255 134 118
0.972130298614502 -0.474938154220581 2.1710000038147 255 128 114
0.979418218135834 -0.47562301158905 2.17400002479553 255 124 112
0.986272752285004 -0.476090550422668 2.17600011825562 255 126 113
0.99222993850708 -0.476121932268143 2.17600011825562 255 128 114
0.997731983661652 -0.475935846567154 2.17500019073486 255 131 115
1.00277090072632 -0.475532352924347 2.17300009727478 255 134 118
1.00826716423035 -0.475349128246307 2.17200016975403 255 127 111
1.01516258716583 -0.475823849439621 2.17400002479553 255 123 105
1.02113389968872 -0.475862413644791 2.17400002479553 255 125 109
1.02758193016052 -0.476121455430985 2.17500019073486 255 127 112
1.03261399269104 -0.47572523355484 2.17300009727478 255 123 108
1.03859543800354 -0.475768387317657 2.17300009727478 253 117 104
1.04458153247833 -0.475813150405884 2.17300009727478 255 120 105
1.05105555057526 -0.476078420877457 2.17400002479553 255 130 115
1.05608141422272 -0.475688457489014 2.17200016975403 255 127 109
1.0620790719986 -0.475738108158112 2.17200016975403 255 126 108
1.06808161735535 -0.475789368152618 2.17200016975403 255 127 112
1.07211112976074 -0.474966049194336 2.16800022125244 255 122 107
1.07562661170959 -0.473925113677979 2.16300010681152 253 114 105
1.08211982250214 -0.474200397729874 2.16400003433228 255 122 113
1.09013271331787 -0.475135117769241 2.16800022125244 255 117 106
1.09817337989807 -0.476071774959564 2.17200016975403 255 119 106
1.10522496700287 -0.476572036743164 2.17400002479553 255 117 104
1.11229383945465 -0.477074295282364 2.17600011825562 255 119 101
1.1178377866745 -0.476920753717422 2.17500019073486 255 118 100
1.12234890460968 -0.476330429315567 2.17200016975403 255 122 105
1.12581050395966 -0.475303143262863 2.16700005531311 255 116 99
1.13290667533875 -0.475813090801239 2.16900014877319 255 114 97
1.14002060890198 -0.476325154304504 2.1710000038147 255 112 97
1.14504075050354 -0.475961595773697 2.16900014877319 255 109 97
1.15111792087555 -0.476038932800293 2.16900014877319 255 107 95
1.15613484382629 -0.475679248571396 2.16700005531311 255 110 96
1.16222023963928 -0.475760638713837 2.16700005531311 255 105 93
1.16615664958954 -0.474965840578079 2.16300010681152 255 112 98
1.1760390996933 -0.476588696241379 2.17000007629395 255 107 93
1.18324482440948 -0.477116018533707 2.17200016975403 255 106 92
1.18937420845032 -0.477206230163574 2.17200016975403 255 114 100
1.19551157951355 -0.477298766374588 2.17200016975403 255 112 98
1.20442295074463 -0.478492498397827 2.17700004577637 255 105 93
1.20947849750519 -0.478150129318237 2.17500019073486 248 95 85
1.21453094482422 -0.477809876203537 2.17300009727478 255 110 100
1.21733355522156 -0.476592153310776 2.16700005531311 255 104 94
1.22519218921661 -0.47735607624054 2.17000007629395 253 100 90
1.23080694675446 -0.477242559194565 2.16900014877319 255 108 98
1.24041736125946 -0.478672027587891 2.17500019073486 255 108 98
1.24433922767639 -0.477903217077255 2.1710000038147 255 109 99
1.25112819671631 -0.478237569332123 2.17200016975403 255 105 95
1.25735342502594 -0.478354305028915 2.17200016975403 255 108 98
1.26940584182739 -0.480676531791687 2.18200016021729 255 106 92
1.28035664558411 -0.482561826705933 2.19000005722046 254 106 92
1.2978264093399 -0.486875265836716 2.20900011062622 253 113 108
1.31246423721313 -0.490091294050217 2.22300004959106 247 123 117
0.807002663612366 -0.48048409819603 2.1710000038147 252 139 118
0.812125265598297 -0.480040311813354 2.16900014877319 255 143 119
0.81874692440033 -0.480482518672943 2.1710000038147 255 137 118
0.825380921363831 -0.480925679206848 2.17300009727478 255 135 116
0.831644654273987 -0.481148362159729 2.17400002479553 255 142 123
0.837915539741516 -0.481371998786926 2.17500019073486 255 138 119
0.844193458557129 -0.481596529483795 2.17600011825562 255 143 124
0.85047847032547 -0.481821984052658 2.17700004577637 255 139 118
0.855590641498566 -0.481384426355362 2.17500019073486 255 138 119
0.861882090568542 -0.481611847877502 2.17600011825562 253 133 114
0.867383301258087 -0.481397598981857 2.17500019073486 254 131 114
0.87288099527359 -0.481184303760529 2.17400002479553 255 141 124
0.877567052841187 -0.480529367923737 2.1710000038147 255 138 119
0.883459568023682 -0.480539500713348 2.1710000038147 254 133 116
0.890173733234406 -0.480993419885635 2.17300009727478 255 137 120
0.895251631736755 -0.480562955141068 2.1710000038147 255 134 115
0.900736093521118 -0.480354934930801 2.17000007629395 255 140 119
0.905381798744202 -0.479705303907394 2.16700005531311 252 131 112
0.911696016788483 -0.479942321777344 2.16800022125244 249 132 112
0.918441414833069 -0.48040184378624 2.17000007629395 255 142 117
0.925200343132019 -0.480862587690353 2.17200016975403 255 136 117
0.931544244289398 -0.481103152036667 2.17300009727478 255 138 119
0.937465071678162 -0.481123566627502 2.17300009727478 255 135 116
0.942520439624786 -0.480702340602875 2.1710000038147 255 135 116
0.947131216526031 -0.480060994625092 2.16800022125244 255 133 114
0.951728641986847 -0.479420810937881 2.16500020027161 255 134 115
0.956754982471466 -0.479003220796585 2.16300010681152 255 131 112
0.961773872375488 -0.478586941957474 2.16100001335144 255 129 111
0.96857625246048 -0.479057878255844 2.16300010681152 255 127 111
0.976294279098511 -0.479973256587982 2.16700005531311 255 123 110
0.98358428478241 -0.480668544769287 2.17000007629395 255 128 115
0.98998236656189 -0.480922311544418 2.1710000038147 255 126 113
0.995930850505829 -0.480955988168716 2.1710000038147 255 124 111
1.00142180919647 -0.480769574642181 2.17000007629395 255 130 114
1.00691115856171 -0.480584591627121 2.16900014877319 255 124 108
1.01239907741547 -0.480401068925858 2.16800022125244 255 124 106
1.01788568496704 -0.480218976736069 2.16700005531311 255 130 114
1.02242600917816 -0.479595154523849 2.16400003433228 255 125 110
1.02790474891663 -0.479416102170944 2.16300010681152 255 123 110
1.03338229656219 -0.479238539934158 2.16200017929077 255 119 108
1.04078185558319 -0.479949355125427 2.16500020027161 255 122 111
1.04771900177002 -0.480440050363541 2.16700005531311 253 115 102
1.0536994934082 -0.480489134788513 2.16700005531311 255 127 109
1.05968499183655 -0.480539888143539 2.16700005531311 255 122 104
1.06420004367828 -0.479927003383636 2.16400003433228 255 118 100
1.06870365142822 -0.479315638542175 2.16100001335144 252 114 99
1.07269859313965 -0.478484094142914 2.15700006484985 255 120 109
1.08117771148682 -0.479650795459747 2.16200017929077 255 121 110
1.08767807483673 -0.479932010173798 2.16300010681152 255 122 111
1.09469568729401 -0.480437070131302 2.16500020027161 253 113 100
1.10071289539337 -0.480500102043152 2.16500020027161 255 113 98
1.10775852203369 -0.481008976697922 2.16700005531311 255 115 98
1.11482119560242 -0.481519907712936 2.16900014877319 255 112 95
1.1198343038559 -0.481144726276398 2.16700005531311 255 113 96
1.12432289123535 -0.480549335479736 2.16400003433228 254 105 88
1.12880098819733 -0.479955732822418 2.16100001335144 255 112 95
1.13536953926086 -0.480252474546433 2.16200017929077 254 104 92
1.14195024967194 -0.480551272630692 2.16300010681152 255 105 91
1.1511971950531 -0.481963247060776 2.16900014877319 255 110 96
1.15568232536316 -0.481377512216568 2.16600012779236 255 103 89
1.16176736354828 -0.481460630893707 2.16600012779236 255 107 90
1.16516351699829 -0.480434209108353 2.16100001335144 255 109 92
1.17287480831146 -0.481188476085663 2.16400003433228 255 113 96
1.17952120304108 -0.48150047659874 2.16500020027161 255 120 103
1.18563306331635 -0.481592267751694 2.16500020027161 255 106 89
1.19230341911316 -0.481908798217773 2.16600012779236 255 107 90
1.20120012760162 -0.48311784863472 2.1710000038147 255 111 94
1.20846557617188 -0.483662039041519 2.17300009727478 255 110 96
1.21463263034821 -0.483763486146927 2.17300009727478 255 111 101
1.2179993391037 -0.482754021883011 2.16800022125244 255 105 93
1.22360467910767 -0.482637315988541 2.16700005531311 255 105 95
1.22807812690735 -0.482077449560165 2.16400003433228 255 103 95
1.23539555072784 -0.482633948326111 2.16600012779236 255 104 94
1.24216032028198 -0.482970267534256 2.16700005531311 251 98 88
1.25470113754272 -0.485538601875305 2.1780002117157 255 104 96
1.2673145532608 -0.488110691308975 2.18900012969971 253 103 99
1.2811644077301 -0.491132766008377 2.2020001411438 241 105 107
0.810252547264099 -0.484787851572037 2.16400003433228 246 143 131
0.816861689090729 -0.48523610830307 2.16600012779236 255 137 120
0.823103070259094 -0.485461086034775 2.16700005531311 255 134 117
0.829734206199646 -0.485911101102829 2.16900014877319 255 134 115
0.83560711145401 -0.485913902521133 2.16900014877319 255 138 119
0.842257499694824 -0.486365675926209 2.1710000038147 255 136 117
0.847358047962189 -0.485922366380692 2.16900014877319 255 136 117
0.85284286737442 -0.485704034566879 2.16800022125244 255 132 113
0.857532024383545 -0.485038578510284 2.16500020027161 255 135 116
0.864599645137787 -0.48571839928627 2.16800022125244 255 135 116
0.869276344776154 -0.485054910182953 2.16500020027161 255 137 120
0.875151574611664 -0.485064625740051 2.16500020027161 255 136 119
0.880215108394623 -0.484627276659012 2.16300010681152 253 130 113
0.888137638568878 -0.485759437084198 2.16800022125244 255 136 119
0.893615305423737 -0.485548257827759 2.16700005531311 255 137 118
0.898259699344635 -0.484890103340149 2.16400003433228 255 131 112
0.902890384197235 -0.484233051538467 2.16100001335144 255 132 116
0.908768773078918 -0.484249383211136 2.16100001335144 255 132 113
0.915073096752167 -0.484490960836411 2.16200017929077 255 135 116
0.92053347826004 -0.48428550362587 2.16100001335144 254 123 113
0.927277505397797 -0.484753668308258 2.16300010681152 255 122 113
0.933172225952148 -0.484774768352509 2.16300010681152 255 124 112
0.939504146575928 -0.485021263360977 2.16400003433228 255 131 117
0.944970607757568 -0.484820783138275 2.16300010681152 251 124 105
0.949995219707489 -0.484397411346436 2.16100001335144 255 132 113
0.95589679479599 -0.484423637390137 2.16100001335144 255 129 111
0.960911512374878 -0.484002888202667 2.15900015830994 255 127 109
0.967709839344025 -0.484480112791061 2.16100001335144 255 128 112
0.97317099571228 -0.484286189079285 2.16000008583069 255 126 110
0.979536712169647 -0.484542071819305 2.16100001335144 255 127 111
0.985455691814423 -0.484575212001801 2.16100001335144 255 129 113
0.991837084293365 -0.484834015369415 2.16200017929077 255 122 106
0.997304618358612 -0.48464572429657 2.16100001335144 255 122 106
1.00369942188263 -0.484907567501068 2.16200017929077 255 122 106
1.00916945934296 -0.484722256660461 2.16100001335144 255 126 111
1.01463842391968 -0.484538435935974 2.16000008583069 255 123 108
1.01821613311768 -0.483458787202835 2.15500020980835 255 122 107
1.02414679527283 -0.483502328395844 2.15500020980835 255 124 111
1.03103768825531 -0.48399618268013 2.15700006484985 255 119 108
1.03842508792877 -0.484716176986694 2.16000008583069 255 121 110
1.04438316822052 -0.484764665365219 2.16000008583069 255 123 110
1.04840111732483 -0.483917027711868 2.1560001373291 255 119 104
1.05484688282013 -0.48419326543808 2.15700006484985 255 125 110
1.06031954288483 -0.484022229909897 2.1560001373291 255 127 109
1.06678104400635 -0.484301954507828 2.15700006484985 254 117 99
1.07176113128662 -0.483909845352173 2.15500020980835 255 117 102
1.0792361497879 -0.484642267227173 2.15799999237061 254 114 101
1.08371603488922 -0.484029144048691 2.15500020980835 255 119 104
1.08970177173615 -0.484091490507126 2.15500020980835 255 119 107
1.09518480300903 -0.483931064605713 2.15400004386902 255 116 104
1.10424673557281 -0.485345333814621 2.16000008583069 255 114 99
1.11129188537598 -0.485862970352173 2.16200017929077 255 111 94
1.1178377866745 -0.486157953739166 2.16300010681152 255 114 97
1.12231695652008 -0.485555768013 2.16000008583069 253 104 87
1.12678575515747 -0.4849554002285 2.15700006484985 255 109 92
1.13124442100525 -0.484356880187988 2.15400004386902 255 105 91
1.13833272457123 -0.484884679317474 2.1560001373291 255 106 92
1.14809310436249 -0.486539393663406 2.16300010681152 255 107 93
1.1541645526886 -0.486621975898743 2.16300010681152 255 105 89
1.16077947616577 -0.486931592226028 2.16400003433228 255 107 90
1.16525053977966 -0.486343383789063 2.16100001335144 255 113 96
1.17079603672028 -0.486207246780396 2.16000008583069 255 111 94
1.17634356021881 -0.486073315143585 2.15900015830994 255 114 97
1.18189299106598 -0.485941559076309 2.15799999237061 255 115 98
1.1907479763031 -0.487163364887238 2.16300010681152 255 116 99
1.19853234291077 -0.487937390804291 2.16600012779236 255 109 92
1.20689833164215 -0.48893940448761 2.17000007629395 255 107 93
1.21305930614471 -0.489042699337006 2.17000007629395 255 112 100
1.21529579162598 -0.487570613622665 2.16300010681152 255 110 98
1.21976006031036 -0.487002104520798 2.16000008583069 255 105 95
1.22591865062714 -0.487112313508987 2.16000008583069 255 100 93
1.23550879955292 -0.488578468561172 2.16600012779236 252 99 91
1.24915540218353 -0.491627216339111 2.17900013923645 255 105 99
1.26691901683807 -0.496259659528732 2.19900012016296 255 115 110
1.28364896774292 -0.500445544719696 2.21700000762939 224 87 92
1.30223798751831 -0.505313634872437 2.23800015449524 173 49 60
0.814599692821503 -0.489736080169678 2.16000008583069 249 132 119
0.820825815200806 -0.489964365959167 2.16100001335144 255 134 117
0.827824115753174 -0.490647047758102 2.16400003433228 255 135 116
0.833299160003662 -0.490423709154129 2.16300010681152 255 134 115
0.840322375297546 -0.491108268499374 2.16600012779236 255 138 119
0.845410168170929 -0.490660041570663 2.16400003433228 254 129 110
0.850489020347595 -0.490212857723236 2.16200017929077 255 132 113
0.854370713233948 -0.489086419343948 2.15700006484985 255 133 114
0.861018836498261 -0.489548206329346 2.15900015830994 255 131 112
0.866475164890289 -0.489330738782883 2.15799999237061 255 135 119
0.872332513332367 -0.489341080188751 2.15799999237061 255 134 118
0.878191888332367 -0.489352494478226 2.15799999237061 255 130 114
0.885282635688782 -0.49004527926445 2.16100001335144 255 128 112
0.890742599964142 -0.489832192659378 2.16000008583069 255 132 116
0.896199226379395 -0.48962014913559 2.15900015830994 255 130 111
0.901235222816467 -0.489182472229004 2.15700006484985 255 136 117
0.906262993812561 -0.488745987415314 2.15500020980835 255 134 115
0.911282241344452 -0.488310515880585 2.15300011634827 255 127 111
0.916719377040863 -0.488103121519089 2.15200018882751 255 126 112
0.923439919948578 -0.488577365875244 2.15400004386902 255 127 114
0.930605828762054 -0.489279747009277 2.15700006484985 255 126 113
0.936922550201416 -0.48952978849411 2.15799999237061 255 129 113
0.942374110221863 -0.489327430725098 2.15700006484985 255 129 111
0.947383582592011 -0.48889946937561 2.15500020980835 255 126 108
0.954154789447784 -0.489380270242691 2.15700006484985 255 127 109
0.960495114326477 -0.489635616540909 2.15799999237061 255 125 107
0.965948700904846 -0.489438563585281 2.15700006484985 255 128 110
0.970048666000366 -0.488562107086182 2.15300011634827 255 132 114
0.975490093231201 -0.488367706537247 2.15200018882751 255 127 109
0.983209848403931 -0.48930948972702 2.1560001373291 255 126 108
0.989120125770569 -0.489344984292984 2.1560001373291 254 122 104
0.994572877883911 -0.489155024290085 2.15500020980835 255 123 107
0.999559819698334 -0.488739460706711 2.15300011634827 255 120 107
1.00594067573547 -0.489006370306015 2.15400004386902 254 118 105
1.01186168193817 -0.489047884941101 2.15400004386902 255 122 109
1.01542437076569 -0.487955749034882 2.14900016784668 255 125 114
1.02134001255035 -0.488000273704529 2.14900016784668 255 122 111
1.02773821353912 -0.488273561000824 2.15000009536743 255 118 107
1.03462731838226 -0.488775640726089 2.15200018882751 252 113 102
1.04008138179779 -0.488598018884659 2.15100002288818 255 117 104
1.04553484916687 -0.488422065973282 2.15000009536743 255 129 114
1.05049848556519 -0.48802050948143 2.14800000190735 255 121 106
1.05791532993317 -0.488756775856018 2.15100002288818 255 120 102
1.06535387039185 -0.489494889974594 2.15400004386902 255 119 101
1.0728143453598 -0.490235030651093 2.15700006484985 255 117 100
1.07779633998871 -0.489840656518936 2.15500020980835 255 120 105
1.07925200462341 -0.487856566905975 2.14600014686584 255 120 105
1.08319187164307 -0.487010687589645 2.14200019836426 255 111 99
1.08864045143127 -0.486848533153534 2.14100003242493 255 115 103
1.0992020368576 -0.488962531089783 2.15000009536743 255 111 99
1.10570728778839 -0.489259362220764 2.15100002288818 255 111 97
1.11274135112762 -0.489785820245743 2.15300011634827 255 110 96
1.11667501926422 -0.488949149847031 2.14900016784668 255 117 105
1.12163746356964 -0.488569408655167 2.1470000743866 255 103 91
1.12659525871277 -0.488191574811935 2.14500021934509 252 97 87
1.13260447978973 -0.488270878791809 2.14500021934509 255 110 99
1.14180564880371 -0.489718347787857 2.15100002288818 253 99 85
1.14837908744812 -0.490029871463776 2.15200018882751 255 105 89
1.15764760971069 -0.491482347249985 2.15799999237061 255 105 87
1.16426086425781 -0.491798609495163 2.15900015830994 255 109 88
1.17034494876862 -0.491889357566834 2.15900015830994 255 113 95
1.17589175701141 -0.491754442453384 2.15799999237061 255 108 91
1.18308401107788 -0.4923055768013 2.16000008583069 255 107 90
1.18919432163239 -0.492403298616409 2.16000008583069 255 108 91
1.19420576095581 -0.492047250270844 2.15799999237061 255 108 94
1.20032668113708 -0.492149621248245 2.15799999237061 255 111 97
1.20813322067261 -0.492938727140427 2.16100001335144 255 109 97
1.21484160423279 -0.493274301290512 2.16200017929077 255 108 96
1.22269380092621 -0.49406886100769 2.16500020027161 254 104 92
1.23341012001038 -0.496007531881332 2.17300009727478 255 108 101
1.24931561946869 -0.500004529953003 2.19000005722046 241 101 104
1.26704728603363 -0.504691004753113 2.21000003814697 217 111 121
0.81854921579361 -0.494435638189316 2.15500020980835 237 139 134
0.824766993522644 -0.494668126106262 2.1560001373291 255 136 117
0.830991744995117 -0.494901448488235 2.15700006484985 255 135 112
0.83683568239212 -0.494906365871429 2.15700006484985 255 134 115
0.843072175979614 -0.495141685009003 2.15799999237061 255 131 112
0.848922550678253 -0.495148599147797 2.15799999237061 255 135 116
0.852398335933685 -0.493779838085175 2.15200018882751 255 135 116
0.858236253261566 -0.493788719177246 2.15200018882751 255 133 114
0.862871706485748 -0.493110328912735 2.14900016784668 255 132 113
0.869918286800385 -0.493809670209885 2.15200018882751 254 127 108
0.87535560131073 -0.493592321872711 2.15100002288818 255 131 115
0.882018864154816 -0.494064450263977 2.15300011634827 255 131 115
0.887458086013794 -0.49384930729866 2.15200018882751 255 128 109
0.893309354782104 -0.493864804506302 2.15200018882751 255 128 109
0.89832729101181 -0.493422359228134 2.15000009536743 255 132 113
0.902495980262756 -0.492522120475769 2.14600014686584 255 131 112
0.907491981983185 -0.492081999778748 2.14400005340576 255 132 114
0.912905931472778 -0.491872668266296 2.14300012588501 255 130 114
0.920889258384705 -0.493041664361954 2.14800000190735 255 126 110
0.928040087223053 -0.493752986192703 2.15100002288818 255 129 113
0.935644447803497 -0.494695276021957 2.15500020980835 255 127 109
0.93977814912796 -0.49380224943161 2.15100002288818 255 126 108
0.944772720336914 -0.49336975812912 2.14900016784668 255 127 109
0.951528787612915 -0.493856817483902 2.15100002288818 255 125 107
0.959189474582672 -0.494804620742798 2.15500020980835 255 127 109
0.96329265832901 -0.493916869163513 2.15100002288818 255 127 109
0.968278765678406 -0.493489772081375 2.14900016784668 255 129 111
0.971897304058075 -0.492374986410141 2.14400005340576 255 131 113
0.980508863925934 -0.493787914514542 2.15000009536743 255 128 110
0.985486626625061 -0.493364959955215 2.14800000190735 255 126 108
0.991380333900452 -0.493402868509293 2.14800000190735 255 129 116
0.996349513530731 -0.492982864379883 2.14600014686584 255 126 113
1.00317978858948 -0.493483275175095 2.14800000190735 255 119 108
1.00908577442169 -0.493525803089142 2.14800000190735 255 119 108
1.01263356208801 -0.492421060800552 2.14300012588501 252 113 102
1.01900947093964 -0.492696464061737 2.14400005340576 251 112 101
1.02539563179016 -0.492973625659943 2.14500021934509 255 121 108
1.03227269649506 -0.493482261896133 2.1470000743866 255 125 112
1.03723108768463 -0.493073225021362 2.14500021934509 255 118 103
1.04218327999115 -0.492665737867355 2.14300012588501 255 118 103
1.04664027690887 -0.492029994726181 2.14000010490417 255 123 108
1.05403673648834 -0.492775499820709 2.14300012588501 255 120 102
1.06046581268311 -0.493063032627106 2.14400005340576 255 120 103
1.06790041923523 -0.493812412023544 2.1470000743866 255 118 101
1.07235610485077 -0.493183612823486 2.14400005340576 255 111 94
1.07579469680786 -0.492096394300461 2.13900017738342 255 115 100
1.08072829246521 -0.491701036691666 2.13700008392334 255 110 98
1.08565640449524 -0.491307377815247 2.13499999046326 255 110 98
1.09364712238312 -0.492296516895294 2.13900017738342 255 107 95
1.0985814332962 -0.491906702518463 2.13700008392334 247 97 83
1.10609543323517 -0.49266991019249 2.14000010490417 255 112 98
1.11259281635284 -0.492974758148193 2.14100003242493 255 108 96
1.12119209766388 -0.49420291185379 2.14600014686584 255 105 93
1.12667441368103 -0.494051575660706 2.14500021934509 255 101 91
1.13374185562134 -0.494593292474747 2.1470000743866 255 106 96
1.13817310333252 -0.493985265493393 2.14400005340576 255 100 89
1.14472913742065 -0.494301080703735 2.14500021934509 255 105 91
1.15183448791504 -0.494849532842636 2.1470000743866 255 106 90
1.16057634353638 -0.496091961860657 2.15200018882751 255 104 86
1.16772711277008 -0.496645361185074 2.15400004386902 255 108 92
1.17544198036194 -0.497431874275208 2.15700006484985 255 103 87
1.18044257164001 -0.497067749500275 2.15500020980835 255 103 87
1.18543994426727 -0.496705740690231 2.15300011634827 255 106 90
1.18988037109375 -0.496115148067474 2.15000009536743 255 101 87
1.19820606708527 -0.497142314910889 2.15400004386902 254 102 90
1.20656311511993 -0.498172372579575 2.15799999237061 255 106 100
1.21719908714294 -0.500128924846649 2.16600012779236 253 101 95
1.22958397865295 -0.502781629562378 2.17700004577637 255 117 110
1.24771702289581 -0.507748186588287 2.19800019264221 240 111 111
0.821710228919983 -0.498646110296249 2.14800000190735 251 137 122
0.827914535999298 -0.49888288974762 2.14900016784668 252 131 112
0.833737790584564 -0.498888373374939 2.14900016784668 255 130 110
0.840735018253326 -0.499591380357742 2.15200018882751 255 132 112
0.846963405609131 -0.499831020832062 2.15300011634827 255 133 110
0.85121876001358 -0.498910903930664 2.14900016784668 255 131 111
0.855055510997772 -0.49775967001915 2.14400005340576 255 131 111
0.860071837902069 -0.49730595946312 2.14200019836426 255 134 114
0.867100536823273 -0.498014122247696 2.14500021934509 253 123 105
0.87374073266983 -0.498491257429123 2.1470000743866 255 126 108
0.879574835300446 -0.498505115509033 2.1470000743866 255 126 108
0.885823607444763 -0.498752355575562 2.14800000190735 254 124 106
0.89125007390976 -0.498536378145218 2.1470000743866 255 129 111
0.896673560142517 -0.498321563005447 2.14600014686584 255 129 111
0.90041196346283 -0.497179001569748 2.14100003242493 255 131 113
0.905395567417145 -0.496734291315079 2.13900017738342 255 132 114
0.910796999931335 -0.49652299284935 2.13800001144409 255 127 109
0.917910635471344 -0.497241854667664 2.14100003242493 255 127 109
0.925906658172607 -0.498426705598831 2.14600014686584 255 127 109
0.932630121707916 -0.498916029930115 2.14800000190735 255 129 111
0.937183260917664 -0.498245418071747 2.14500021934509 255 126 108
0.941722929477692 -0.497575968503952 2.14200019836426 255 131 113
0.94846123456955 -0.49806934595108 2.14400005340576 255 129 111
0.956549406051636 -0.499261230230331 2.14900016784668 255 128 110
0.961085319519043 -0.498595833778381 2.14600014686584 255 131 113
0.966059029102325 -0.498164147138596 2.14400005340576 255 131 111
0.969211995601654 -0.496804416179657 2.13800001144409 255 130 110
0.976896524429321 -0.497769862413406 2.14200019836426 255 132 112
0.981853842735291 -0.497342437505722 2.14000010490417 255 127 107
