-0.0444168262183666 0.469256818294525 3.70800018310547 162 76 70
-0.0343055129051209 0.468499600887299 3.7020001411438 168 69 60
-0.024226626381278 0.467741757631302 3.69600009918213 169 61 61
-0.0142263164743781 0.468502074480057 3.7020001411438 192 76 79
0.0259533934295177 0.468880534172058 3.70500016212463 205 91 95
0.0359913520514965 0.468752384185791 3.70400023460388 204 90 100
0.046110775321722 0.469509571790695 3.71000027656555 212 81 87
0.0562171563506126 0.469886600971222 3.71300005912781 210 75 81
-0.194805100560188 0.458143383264542 3.70000028610229 250 87 94
-0.173754930496216 0.455561488866806 3.67900013923645 250 93 100
-0.163648247718811 0.455198466777802 3.67600011825562 249 88 93
-0.153933569788933 0.455949425697327 3.68200016021729 245 80 85
-0.143990367650986 0.456080734729767 3.68300008773804 244 78 83
-0.134223207831383 0.456830769777298 3.68900012969971 237 71 76
-0.124355711042881 0.457332611083984 3.69300007820129 242 74 79
-0.114435158669949 0.457710176706314 3.69600009918213 236 68 72
-0.104045949876308 0.456105828285217 3.68300008773804 241 74 75
-0.094007819890976 0.455863147974014 3.68100023269653 235 70 71
-0.0843226313591003 0.457477599382401 3.69400024414063 234 69 70
-0.0747476890683174 0.460206210613251 3.71600008010864 239 71 76
-0.0645484924316406 0.459342837333679 3.70900011062622 232 66 71
-0.0542695112526417 0.457488179206848 3.69400024414063 232 68 69
-0.0440237931907177 0.455137580633163 3.67500019073486 197 101 6
-0.0340385213494301 0.454891890287399 3.67300009727478 255 243 114
-0.0240771006792784 0.454893350601196 3.67300009727478 255 243 116
-0.00416648760437965 0.456257164478302 3.68400025367737 188 94 33
0.00583281554281712 0.456876337528229 3.68900012969971 204 78 34
0.0158334616571665 0.456751942634583 3.68800020217896 225 76 58
0.0258636567741632 0.457246243953705 3.69200015068054 232 77 67
0.0359057448804379 0.457616239786148 3.69500017166138 231 72 70
0.0459018349647522 0.457366436719894 3.69300007820129 232 66 71
0.0560080632567406 0.458106964826584 3.69900012016296 227 62 66
0.0662180557847023 0.459342300891876 3.70900011062622 222 69 69
-0.252288967370987 0.443344265222549 3.66100025177002 246 94 100
-0.241906121373177 0.442508548498154 3.6540002822876 255 99 104
-0.232957243919373 0.444336593151093 3.66900014877319 251 85 89
-0.222953826189041 0.444226622581482 3.66800022125244 251 79 83
-0.213419690728188 0.445085018873215 3.67500019073486 255 86 90
-0.202795013785362 0.443641811609268 3.66300010681152 248 74 78
-0.193656384944916 0.44546827673912 3.6780002117157 245 73 77
-0.183337077498436 0.444629728794098 3.67100024223328 249 77 79
-0.173007860779762 0.443669468164444 3.66300010681152 243 73 75
-0.162765994668007 0.44282990694046 3.6560001373291 249 79 81
-0.153188690543175 0.443806737661362 3.66400027275085 248 76 78
-0.143528386950493 0.444661974906921 3.67100024223328 245 73 75
-0.134047985076904 0.446243494749069 3.68400025367737 250 80 82
-0.123890496790409 0.445644229650497 3.67900013923645 237 70 71
-0.113883554935455 0.445529013872147 3.6780002117157 245 69 69
-0.103457890450954 0.44359627366066 3.66200017929077 239 70 69
-0.0938593074679375 0.44517594575882 3.67500019073486 243 75 70
-0.0839159786701202 0.445301532745361 3.67600011825562 242 74 69
-0.0742083266377449 0.446880251169205 3.68900012969971 238 66 70
-0.0640644356608391 0.445914596319199 3.68100023269653 236 66 68
-0.0538755655288696 0.444221585988998 3.66700005531311 248 89 69
-0.0437744371592999 0.442649215459824 3.6540002822876 255 250 106
-0.0339197628200054 0.443378001451492 3.66000008583069 255 242 82
-0.0240717604756355 0.444833129644394 3.67200016975403 255 242 85
-0.0141355274245143 0.445560961961746 3.6780002117157 255 236 83
-0.00415991200134158 0.445561438798904 3.6780002117157 255 233 95
0.00581729831174016 0.445682495832443 3.67900013923645 255 237 111
0.0157784447073936 0.445197433233261 3.67500019073486 255 169 118
0.0257808919996023 0.44580203294754 3.6800000667572 243 115 89
0.0356646105647087 0.444589108228683 3.67000007629395 209 62 51
0.0455312505364418 0.443739086389542 3.66300010681152 232 73 70
0.0555111914873123 0.444099962711334 3.66600012779236 231 72 69
0.0656679049134254 0.4455506503582 3.6780002117157 224 72 68
-0.251267313957214 0.431663185358047 3.64600014686584 242 81 86
-0.241255685687065 0.431438118219376 3.64400029182434 250 82 86
-0.231698542833328 0.432041347026825 3.64900016784668 255 80 82
-0.221505746245384 0.431460201740265 3.64400029182434 255 78 80
-0.211048915982246 0.43028649687767 3.6340000629425 253 77 79
-0.201531454920769 0.431006848812103 3.64000010490417 248 74 76
-0.192296758294106 0.432437241077423 3.65200018882751 253 82 81
-0.182347118854523 0.432327896356583 3.65100026130676 250 79 78
-0.172307804226875 0.431981176137924 3.64800024032593 249 77 79
-0.162150651216507 0.431278795003891 3.64200019836426 254 83 82
-0.152610823512077 0.43223375082016 3.65000009536743 246 75 73
-0.143027141690254 0.43318834900856 3.65800023078918 250 77 75
-0.133581534028053 0.434734553098679 3.67100024223328 251 78 76
-0.123458780348301 0.434148669242859 3.66600012779236 249 76 74
-0.113146014511585 0.432733356952667 3.6540002822876 245 72 70
-0.103095702826977 0.432146519422531 3.64900016784668 243 70 68
-0.0933786630630493 0.432980298995972 3.6560001373291 241 70 68
-0.0833722203969955 0.432510912418365 3.65200018882751 243 74 72
-0.0736688375473022 0.433699101209641 3.66200017929077 227 63 58
-0.0636324808001518 0.432991862297058 3.6560001373291 255 122 102
-0.0535549931228161 0.431691974401474 3.64500021934509 255 250 105
-0.0436328388750553 0.431339025497437 3.64200019836426 255 243 87
-0.0338936373591423 0.4331174492836 3.65700006484985 255 244 82
-0.0240729562938213 0.434895426034927 3.67200016975403 253 242 72
-0.0140862641856074 0.43406730890274 3.66500020027161 255 245 77
-0.00413975864648819 0.433475583791733 3.66000008583069 255 240 77
0.0057859611697495 0.433357089757919 3.65900015830994 255 237 77
0.0157577600330114 0.434659361839294 3.67000007629395 255 231 94
0.0256700776517391 0.433947741985321 3.66400027275085 255 235 134
0.0454464927315712 0.43299674987793 3.6560001373291 255 128 88
0.0552716553211212 0.432283669710159 3.65000009536743 213 69 38
0.0651712119579315 0.432280719280243 3.65000009536743 214 70 53
0.0751116871833801 0.432514160871506 3.65200018882751 207 83 60
-0.25079670548439 0.42098742723465 3.63900017738342 246 101 107
-0.240538746118546 0.420304745435715 3.63300013542175 249 81 86
-0.230630025267601 0.420200049877167 3.632000207901 254 74 77
-0.220422014594078 0.41951647400856 3.62600016593933 255 78 78
-0.210594296455383 0.419526636600494 3.62600016593933 255 79 79
-0.200489059090614 0.41895779967308 3.62100028991699 252 74 74
-0.191042169928551 0.419776946306229 3.62800025939941 255 80 78
-0.1810572296381 0.419438689947128 3.62500023841858 255 81 81
-0.171324118971825 0.419678419828415 3.62700009346008 246 70 70
-0.161535084247589 0.419802069664001 3.62800025939941 251 75 75
-0.151907369494438 0.420388102531433 3.63300013542175 245 72 70
-0.142056480050087 0.420395106077194 3.63300013542175 250 77 75
-0.132387101650238 0.420980215072632 3.63800024986267 248 75 73
-0.122151292860508 0.419713407754898 3.62700009346008 246 73 71
-0.112439267337322 0.420181959867477 3.63100028038025 248 75 71
-0.102535612881184 0.419955641031265 3.62900018692017 241 70 68
-0.0928467959165573 0.420654654502869 3.63500022888184 235 69 66
-0.0829424932599068 0.420427471399307 3.63300013542175 222 66 50
-0.0731694623827934 0.420894086360931 3.63700008392334 255 229 115
-0.0632700473070145 0.420665919780731 3.63500022888184 255 239 91
-0.053204957395792 0.419048547744751 3.62100028991699 255 245 73
-0.0434073247015476 0.419282346963882 3.6230001449585 255 243 73
-0.0337284505367279 0.42113584280014 3.63900017738342 255 245 77
-0.0239757858216763 0.423220336437225 3.65700006484985 255 247 80
-0.0140254516154528 0.422295421361923 3.64900016784668 255 242 76
-0.00411960016936064 0.421485781669617 3.64200019836426 255 242 78
0.00575619656592608 0.421254277229309 3.64000010490417 255 241 81
0.0156554747372866 0.421948164701462 3.64600014686584 255 241 81
0.0254961680620909 0.421137064695358 3.63900017738342 254 238 74
0.0353668332099915 0.421135574579239 3.63900017738342 254 238 74
0.045249804854393 0.421249359846115 3.64000010490417 255 235 79
0.0550320483744144 0.420552581548691 3.6340000629425 255 244 105
0.0647636950016022 0.419739603996277 3.62700009346008 255 228 137
0.0746216997504234 0.419851988554001 3.62800025939941 204 100 60
-0.250670433044434 0.410913109779358 3.63700008392334 230 100 104
-0.239821568131447 0.409229636192322 3.62200021743774 245 79 84
-0.229688197374344 0.408675462007523 3.61700010299683 255 80 82
-0.219581186771393 0.40812087059021 3.61200022697449 250 72 72
-0.209907159209251 0.408356785774231 3.61400008201599 255 79 79
-0.199833989143372 0.407801300287247 3.60900020599365 255 79 79
-0.189945250749588 0.40758427977562 3.60700011253357 255 82 80
-0.180016785860062 0.40725389122963 3.60400009155273 255 82 80
-0.170670852065086 0.408279061317444 3.61300015449524 249 73 73
-0.161141961812973 0.408964842557907 3.61900019645691 246 71 69
-0.151705458760262 0.409989207983017 3.62800025939941 246 71 69
-0.141476660966873 0.408865988254547 3.61800026893616 254 79 77
-0.13181109726429 0.409324407577515 3.62200021743774 244 71 69
-0.121651895344257 0.408200234174728 3.61200022697449 243 73 68
-0.111825235188007 0.408092677593231 3.61100006103516 252 82 76
-0.102144904434681 0.408549845218658 3.61500024795532 240 73 64
-0.0924169793725014 0.408893465995789 3.61800026893616 245 87 63
-0.0728711634874344 0.409353315830231 3.62200021743774 255 241 97
-0.0630467906594276 0.409356534481049 3.62200021743774 255 246 82
-0.0531487166881561 0.40879413485527 3.61700010299683 255 249 72
-0.0433375053107738 0.408796429634094 3.61700010299683 255 246 74
-0.0335724949836731 0.40936341881752 3.62200021743774 255 246 79
-0.0237736813724041 0.409816831350327 3.62600016593933 255 243 77
-0.0139646213501692 0.410608887672424 3.63300013542175 255 242 78
-0.00410622265189886 0.410270184278488 3.63000011444092 254 240 76
0.00573749514296651 0.4100441634655 3.62800025939941 255 242 76
0.0155531661584973 0.409365504980087 3.62200021743774 255 242 78
0.0253782719373703 0.409364521503448 3.62200021743774 255 240 70
0.0351741351187229 0.409024059772491 3.61900019645691 255 239 72
0.0450779236853123 0.409813314676285 3.62600016593933 255 236 74
0.0548983812332153 0.409697949886322 3.62500023841858 255 241 96
0.0742961466312408 0.408222556114197 3.61200022697449 209 78 42
0.084372490644455 0.40957498550415 3.62400007247925 200 75 75
-0.249578982591629 0.399304628372192 3.62100028991699 196 92 94
-0.238839209079742 0.397771686315537 3.60700011253357 236 80 84
-0.228682562708855 0.39712056517601 3.6010000705719 254 76 78
-0.219104826450348 0.397461473941803 3.60400009155273 253 77 77
-0.208929315209389 0.396699160337448 3.59700012207031 255 79 79
-0.198957175016403 0.396267294883728 3.59300017356873 255 78 76
-0.189322039484978 0.396496713161469 3.59500026702881 255 84 82
-0.179375693202019 0.396063923835754 3.59100008010864 246 71 69
-0.169733926653862 0.396292477846146 3.59300017356873 252 77 75
-0.159991651773453 0.396299988031387 3.59300017356873 247 72 70
-0.150667056441307 0.397410124540329 3.60300016403198 246 73 71
-0.141013950109482 0.397747695446014 3.60600018501282 247 72 70
-0.131526067852974 0.398636370897293 3.61400008201599 247 74 72
-0.121287062764168 0.397208243608475 3.6010000705719 241 70 68
-0.111303962767124 0.396441429853439 3.59400010108948 242 72 67
-0.101443223655224 0.396005123853683 3.59000015258789 247 81 78
-0.0919614806771278 0.3971126973629 3.60000014305115 248 92 76
-0.0822653472423553 0.397447645664215 3.60300016403198 255 173 132
-0.0724319368600845 0.397120326757431 3.60000014305115 255 243 127
-0.0627538114786148 0.397675007581711 3.60500025749207 255 235 102
-0.0529748722910881 0.397677689790726 3.60500025749207 255 239 83
-0.0431837700307369 0.397569596767426 3.60400009155273 255 244 88
-0.0333516001701355 0.39690950512886 3.59800028800964 255 242 86
-0.023617435246706 0.397352069616318 3.60200023651123 255 243 79
-0.0138576431199908 0.39768385887146 3.60500025749207 255 243 73
-0.00408944673836231 0.398787438869476 3.61500024795532 254 243 65
0.0057124593295157 0.398456454277039 3.61200022697449 255 244 76
0.0155152454972267 0.398566275835037 3.61300015449524 254 241 73
0.0252883713692427 0.398124068975449 3.60900020599365 255 240 72
0.0350008308887482 0.397240161895752 3.6010000705719 255 233 82
0.0447940826416016 0.397458910942078 3.60300016403198 255 238 112
0.0546586290001869 0.398118525743485 3.60900020599365 220 139 51
0.0643233731389046 0.397343575954437 3.60200023651123 229 75 59
0.0740939229726791 0.397340357303619 3.60200023651123 228 73 62
0.0838875025510788 0.397447049617767 3.60300016403198 224 74 70
-0.237326800823212 0.385533154010773 3.58400011062622 228 86 91
-0.226978033781052 0.384467661380768 3.57400012016296 255 81 83
-0.217412322759628 0.384692668914795 3.57600021362305 254 76 76
-0.207776963710785 0.384809672832489 3.5770001411438 255 79 79
-0.198190838098526 0.385033816099167 3.57900023460388 255 84 84
-0.188698574900627 0.385472774505615 3.58300018310547 255 82 80
-0.179134026169777 0.385803759098053 3.5860002040863 255 82 80
-0.169741585850716 0.386564642190933 3.59300017356873 255 82 80
-0.159375488758087 0.385065764188766 3.57900023460388 253 78 76
-0.149837508797646 0.385503083467484 3.58300018310547 250 77 75
-0.140277311205864 0.385939955711365 3.58700013160706 251 76 74
-0.131058946251869 0.387452393770218 3.6010000705719 251 76 74
-0.12082102894783 0.385951727628708 3.58700013160706 243 70 68
-0.110999338328838 0.385634183883667 3.58400011062622 245 71 71
-0.101108767092228 0.384993314743042 3.57800006866455 246 75 74
-0.0914803147315979 0.385320514440537 3.58100008964539 237 73 70
-0.081766776740551 0.385324448347092 3.58100008964539 242 83 72
-0.072093203663826 0.385543137788773 3.58300018310547 212 60 36
-0.0623388923704624 0.385330975055695 3.58100008964539 217 91 57
-0.0429460965096951 0.38565856218338 3.58400011062622 255 244 120
-0.0332233533263206 0.385660290718079 3.58400011062622 255 240 92
-0.0234939362853765 0.385553985834122 3.58300018310547 255 240 84
-0.0138236824423075 0.386953681707382 3.59600019454956 255 243 79
-0.00405682716518641 0.385878056287766 3.5860002040863 255 244 72
0.00569848762825131 0.387707322835922 3.60300016403198 255 244 76
0.0154730146750808 0.387706845998764 3.60300016403198 255 241 85
0.025226466357708 0.387383133172989 3.60000014305115 255 237 80
0.0446469485759735 0.386411488056183 3.59100008010864 185 86 15
0.0543279238045216 0.385978817939758 3.58700013160706 222 79 50
0.0640405938029289 0.385868549346924 3.5860002040863 230 68 61
0.0736241862177849 0.385112196207047 3.57900023460388 231 71 64
0.0834023877978325 0.385431438684464 3.58200025558472 222 70 66
0.0932745561003685 0.386073023080826 3.58800005912781 224 83 82
-0.23515185713768 0.372369289398193 3.55100011825562 209 101 101
-0.225590720772743 0.372484147548676 3.55200028419495 255 85 87
-0.216266632080078 0.373018056154251 3.55700016021729 255 82 82
-0.206682354211807 0.373132050037384 3.55800008773804 252 74 74
-0.196815103292465 0.372721374034882 3.55400013923645 255 77 77
-0.187179535627365 0.37272971868515 3.55400013923645 254 76 76
-0.177992969751358 0.373681604862213 3.56300020217896 254 79 77
-0.168851464986801 0.37484285235405 3.57400012016296 252 77 75
-0.15862549841404 0.37359145283699 3.5620002746582 252 79 77
-0.148882284760475 0.373388439416885 3.56000018119812 249 76 74
-0.139462292194366 0.374024122953415 3.56600022315979 248 75 73
-0.130082070827484 0.374869138002396 3.57400012016296 247 74 72
-0.119950622320175 0.373511105775833 3.56100010871887 249 76 74
-0.110508747398853 0.374250411987305 3.56800007820129 243 69 69
-0.100632876157761 0.373520851135254 3.56100010871887 241 67 67
-0.0911012068390846 0.374049544334412 3.56600022315979 242 71 69
-0.0812680870294571 0.373319149017334 3.55900025367737 241 70 69
-0.0717141181230545 0.373846977949142 3.56400012969971 243 72 71
-0.06206314265728 0.373954832553864 3.56500005722046 240 69 67
-0.0524212270975113 0.374167203903198 3.56700015068054 237 71 68
-0.0427083671092987 0.373854607343674 3.56400012969971 229 65 60
-0.0329467356204987 0.372807294130325 3.55400013923645 254 120 88
-0.0040423022583127 0.374802857637405 3.57300019264221 255 235 104
0.00564496731385589 0.374383240938187 3.56900024414063 255 232 95
0.0153191043063998 0.374172985553741 3.56700015068054 255 232 103
0.0347026698291302 0.374485433101654 3.57000017166138 220 72 51
0.0443754158914089 0.374378770589828 3.56900024414063 229 79 67
0.0539668500423431 0.373747199773788 3.56300020217896 231 75 68
0.0636505633592606 0.373849511146545 3.56400012969971 232 68 63
0.0733188986778259 0.373846441507339 3.56400012969971 233 69 66
0.0829171314835548 0.373528271913528 3.56100010871887 232 71 68
0.0926547944545746 0.37383908033371 3.56400012969971 225 70 70
-0.224139556288719 0.360516369342804 3.5290002822876 247 77 81
-0.21493823826313 0.361138641834259 3.53500008583069 255 80 82
-0.205238953232765 0.360943228006363 3.53300023078918 253 75 75
-0.195494428277016 0.360645234584808 3.53000020980835 255 77 77
-0.186081573367119 0.360959887504578 3.53300023078918 255 80 80
-0.177151381969452 0.362295836210251 3.54600024223328 255 81 79
-0.167724877595901 0.362711906433105 3.55000019073486 255 85 83
-0.157830744981766 0.362105846405029 3.54400014877319 255 82 80
-0.148219600319862 0.362112402915955 3.54400014877319 247 74 72
-0.138842567801476 0.362731665372849 3.55000019073486 247 74 72
-0.129068583250046 0.362328708171844 3.54600024223328 247 74 72
-0.119282133877277 0.36182314157486 3.54100012779236 243 70 68
-0.109832160174847 0.362339049577713 3.54600024223328 250 77 75
-0.100326403975487 0.362752288579941 3.55000019073486 248 77 75
-0.0906453207135201 0.362552046775818 3.54800009727478 241 70 69
-0.0809062793850899 0.362044870853424 3.54300022125244 242 71 70
-0.0713751763105392 0.362456917762756 3.54700016975403 244 75 74
-0.0619788244366646 0.363788247108459 3.56000018119812 242 71 70
-0.0523794405162334 0.364199459552765 3.56400012969971 239 68 67
-0.0426143705844879 0.363384038209915 3.55600023269653 235 66 64
-0.0328276678919792 0.36185285449028 3.54100012779236 235 75 68
-0.0232009328901768 0.361547470092773 3.53800010681152 228 75 65
-0.0136826671659946 0.363694310188293 3.55900025367737 218 67 49
-0.00402550911530852 0.363592475652695 3.55800008773804 196 96 20
0.0249203611165285 0.363386750221252 3.55600023269653 195 70 22
0.0344708934426308 0.362363547086716 3.54600024223328 229 72 62
0.0440665185451508 0.362157464027405 3.54400014877319 234 76 69
0.0536359809339046 0.361848741769791 3.54100012779236 225 61 58
0.0634211748838425 0.362868130207062 3.55100011825562 229 65 62
0.0730546712875366 0.362865149974823 3.55100011825562 233 69 66
0.0826646387577057 0.362759590148926 3.55000019073486 230 66 63
0.0921388864517212 0.3621426820755 3.54400014877319 225 64 62
0.102183222770691 0.363671243190765 3.55900025367737 201 83 84
-0.223704293370247 0.350263208150864 3.5220000743866 255 87 92
-0.214217588305473 0.350371807813644 3.52300024032593 255 76 81
-0.204434245824814 0.349982619285584 3.51900005340576 252 72 75
-0.194727301597595 0.349692583084106 3.51600027084351 254 76 76
-0.185352012515068 0.349998861551285 3.51900005340576 255 77 77
-0.176159664988518 0.350702613592148 3.52600026130676 255 82 80
-0.166361764073372 0.35021248459816 3.52100014686584 251 76 74
-0.157080322504044 0.350816041231155 3.52700018882751 250 77 73
-0.147389397025108 0.350524038076401 3.52400016784668 248 75 73
-0.138027146458626 0.351027399301529 3.5290002822876 251 78 76
-0.128164082765579 0.350237220525742 3.52100014686584 245 72 70
-0.118579804897308 0.350142955780029 3.52000021934509 242 69 67
-0.109186381101608 0.350645124912262 3.52500009536743 246 73 71
-0.0995958894491196 0.350550085306168 3.52400016784668 247 76 74
-0.0898827314376831 0.349957227706909 3.51800012588501 245 74 72
-0.0802703276276588 0.34966242313385 3.51500010490417 246 75 73
-0.0708550289273262 0.350262463092804 3.52100014686584 241 70 69
-0.0616506896913052 0.352254867553711 3.54100012779236 244 73 72
-0.0522200204432011 0.353451013565063 3.5530002117157 244 73 72
-0.0424723923206329 0.352557718753815 3.54400014877319 243 72 70
-0.0326900146901608 0.350768685340881 3.52600026130676 234 67 66
-0.0231166798621416 0.350670367479324 3.52500009536743 239 74 73
-0.0136255845427513 0.352561295032501 3.54400014877319 235 72 69
-0.00401549972593784 0.353059083223343 3.54900026321411 234 80 64
0.00561382295563817 0.353059053421021 3.54900026321411 242 79 74
0.0152001772075891 0.352063804864883 3.53900027275085 232 68 63
0.0248233191668987 0.352361410856247 3.54200005531311 230 61 59
0.0343168340623379 0.351166367530823 3.53000020980835 232 63 62
0.043931633234024 0.351463168859482 3.53300023078918 237 71 68
0.0533959269523621 0.350665211677551 3.52500009536743 234 70 67
0.0632095709443092 0.352055460214615 3.53900027275085 232 68 65
0.0728109255433083 0.352052599191666 3.53900027275085 232 68 65
0.0823654532432556 0.351850360631943 3.53700017929077 229 60 59
0.0918568447232246 0.351448774337769 3.53300023078918 234 67 68
0.101814329624176 0.352737843990326 3.54600024223328 225 75 77
-0.222824171185493 0.339369684457779 3.50800013542175 244 91 99
-0.213010221719742 0.338894844055176 3.50300025939941 251 77 87
-0.203513100743294 0.338903278112412 3.50300025939941 251 71 76
-0.193849161267281 0.338621079921722 3.50000023841858 255 81 83
-0.184780225157738 0.339402735233307 3.50800013542175 255 81 83
-0.175567388534546 0.339990615844727 3.51400017738342 255 79 79
-0.165943399071693 0.339804083108902 3.51200008392334 255 80 78
-0.156641453504562 0.340294480323792 3.51700019836426 255 84 82
-0.146893620491028 0.339816898107529 3.51200008392334 250 77 75
-0.137328818440437 0.339726001024246 3.51100015640259 254 81 79
-0.127441391348839 0.338763803243637 3.50100016593933 242 69 67
-0.11797833442688 0.338865637779236 3.50200009346008 243 69 69
-0.108478493988514 0.338870286941528 3.50200009346008 246 72 72
-0.0990630462765694 0.339164882898331 3.50500011444092 245 74 72
-0.0894010365009308 0.338588178157806 3.49900007247925 251 80 79
-0.0799311250448227 0.338688433170319 3.50000023841858 244 73 72
-0.0704353973269463 0.338691592216492 3.50000023841858 248 76 78
-0.0612354055047035 0.34033939242363 3.51700019836426 240 68 70
-0.0517371818423271 0.340632021427155 3.52000021934509 244 72 76
-0.0422344841063023 0.341021090745926 3.52400016784668 239 67 71
-0.0326357558369637 0.340635508298874 3.52000021934509 237 67 71
-0.0230783019214869 0.340539902448654 3.51900005340576 237 70 71
-0.0135761741548777 0.341701924800873 3.5310001373291 235 68 67
-0.00399643322452903 0.341799050569534 3.53200006484985 235 66 65
0.00559824099764228 0.342476487159729 3.53900027275085 237 71 68
0.0151621578261256 0.341605067253113 3.53000020980835 232 61 59
0.0247753039002419 0.342088103294373 3.53500008583069 233 62 60
0.0342599414288998 0.341022372245789 3.52400016784668 232 66 63
0.0438215620815754 0.341020792722702 3.52400016784668 234 70 67
0.0532012432813644 0.339857488870621 3.51200008392334 234 70 67
0.062801405787468 0.340242207050323 3.51600027084351 233 69 66
0.0723201781511307 0.340142577886581 3.51500010490417 235 71 68
0.0819497182965279 0.34052649140358 3.51900005340576 228 59 58
0.091366671025753 0.340039044618607 3.51400017738342 230 63 64
0.101359166204929 0.341583341360092 3.53000020980835 230 71 78
-0.222197845578194 0.328927010297775 3.4980001449585 255 135 146
-0.21204574406147 0.327901244163513 3.48700022697449 255 90 101
-0.202649757266045 0.328003436326981 3.48800015449524 255 78 84
-0.193192288279533 0.328011304140091 3.48800015449524 255 78 80
-0.183786809444427 0.328112781047821 3.48900008201599 255 77 79
-0.174575179815292 0.328590154647827 3.49400019645691 254 76 76
-0.165052309632301 0.328502863645554 3.49300026893616 255 80 78
-0.155489757657051 0.328321188688278 3.49100017547607 255 81 79
-0.145770207047462 0.32776290178299 3.4850001335144 251 78 76
-0.136552095413208 0.328332871198654 3.49100017547607 255 81 79
-0.126973330974579 0.328056007623672 3.48800015449524 252 77 75
-0.117545172572136 0.328154981136322 3.48900008201599 247 72 70
-0.107956297695637 0.327783286571503 3.4850001335144 248 74 74
-0.0985583364963531 0.32797560095787 3.48700022697449 244 71 69
-0.0890980809926987 0.327979385852814 3.48700022697449 245 74 72
-0.0797060206532478 0.328264951705933 3.49000024795532 241 70 68
-0.0702168941497803 0.328173905611038 3.48900008201599 242 70 72
-0.0607677921652794 0.328270643949509 3.49000024795532 240 68 70
-0.0514306277036667 0.32911941409111 3.49900007247925 238 66 70
-0.0419485680758953 0.329215377569199 3.50000023841858 236 63 69
-0.0324794761836529 0.329499095678329 3.50300025939941 241 70 76
-0.0229611955583096 0.329312056303024 3.50100016593933 240 70 74
-0.0134652266278863 0.329406887292862 3.50200009346008 233 66 67
-0.00396604556590319 0.329689413309097 3.50500011444092 237 68 67
0.00555259408429265 0.330159723758698 3.51000022888184 233 64 62
0.0150596909224987 0.329783082008362 3.50600028038025 234 65 63
0.0245730634778738 0.329782247543335 3.50600028038025 233 67 64
0.0341057926416397 0.329969167709351 3.50800013542175 235 71 68
0.0436616949737072 0.330249786376953 3.51100015640259 234 70 67
0.0530519299209118 0.329401254653931 3.50200009346008 234 70 67
0.0625003129243851 0.329116702079773 3.49900007247925 229 65 62
0.0718293264508247 0.328361541032791 3.49100017547607 231 67 64
0.0812311246991158 0.328076303005219 3.48800015449524 234 69 68
0.0907203555107117 0.328166872262955 3.48900008201599 231 66 65
0.100214712321758 0.328257083892822 3.49000024795532 226 66 69
-0.210837736725807 0.316627949476242 3.46700024604797 210 81 79
-0.201611861586571 0.316909909248352 3.47000026702881 253 74 80
-0.191870480775833 0.316369473934174 3.46400022506714 255 75 82
-0.182371735572815 0.316194087266922 3.46200013160706 253 74 80
-0.17283321917057 0.315926969051361 3.45900011062622 254 75 80
-0.163735702633858 0.316481500864029 3.46500015258789 255 82 84
-0.154115080833435 0.316031008958817 3.46000027656555 249 74 72
-0.144730240106583 0.316036850214005 3.46000027656555 244 69 67
-0.135579571127892 0.316590338945389 3.46600008010864 250 75 73
-0.1265779286623 0.317600250244141 3.47700023651123 252 76 76
-0.116943396627903 0.317056953907013 3.47100019454956 247 71 73
-0.107433959841728 0.316787332296371 3.46800017356873 233 56 61
-0.0980252102017403 0.316791355609894 3.46800017356873 251 75 77
-0.0888716503977776 0.317708522081375 3.47800016403198 246 70 72
-0.0795036405324936 0.317985892295837 3.48100018501282 243 69 71
-0.0700788199901581 0.31808015704155 3.48200011253357 241 67 69
-0.060596089810133 0.317900031805038 3.48000025749207 244 70 72
-0.0511240027844906 0.317719548940659 3.47800016403198 243 69 73
-0.0416865572333336 0.317721366882324 3.47800016403198 241 66 72
-0.0322118774056435 0.317357420921326 3.4740002155304 239 69 73
-0.0227653533220291 0.317084431648254 3.47100019454956 236 66 68
-0.013346565887332 0.317085176706314 3.47100019454956 240 71 69
-0.00394017761573195 0.318090379238129 3.48200011253357 241 72 70
0.00551801221445203 0.318638473749161 3.48800015449524 236 70 67
0.0149529054760933 0.317998617887497 3.48100018501282 235 69 66
0.0243497528135777 0.31735834479332 3.4740002155304 232 66 63
0.0338543690741062 0.318088054656982 3.48200011253357 233 69 66
0.0433401018381119 0.318360567092896 3.4850001335144 236 72 69
0.0528571084141731 0.318724066019058 3.48900008201599 239 75 72
0.0621276907622814 0.317716926336288 3.47800016403198 226 62 59
0.0714206621050835 0.317074835300446 3.47100019454956 232 68 65
0.0807452797889709 0.316706478595734 3.46700024604797 238 74 71
0.0902039185166359 0.31688579916954 3.46900010108948 230 66 63
0.0997879579663277 0.317430138587952 3.47500014305115 232 67 66
-0.210845753550529 0.30723437666893 3.46700024604797 198 85 85
-0.200747981667519 0.306178718805313 3.45500016212463 255 86 92
-0.190991535782814 0.305565744638443 3.44800019264221 252 72 78
-0.18121974170208 0.304863750934601 3.44000005722046 255 76 82
-0.171490699052811 0.30416139960289 3.43200016021729 255 80 86
-0.162607833743095 0.30496534705162 3.44100022315979 255 80 82
-0.153408318758011 0.305237233638763 3.44400024414063 250 74 74
-0.144233822822571 0.305597394704819 3.44800019264221 254 79 77
-0.13491977751255 0.305691331624985 3.44900012016296 248 72 72
-0.125672683119774 0.305962204933167 3.4520001411438 252 74 74
-0.116274066269398 0.305878192186356 3.45100021362305 251 73 75
-0.106570675969124 0.304907441139221 3.44000005722046 244 65 70
-0.0971527472138405 0.304645419120789 3.4370002746582 250 73 78
-0.0881084948778152 0.305624008178711 3.44800019264221 242 66 68
-0.0789814069867134 0.306513607501984 3.45800018310547 244 70 70
-0.0697192624211311 0.307048290967941 3.46400022506714 241 67 69
-0.0602153539657593 0.306518942117691 3.45800018310547 243 69 69
-0.0507731921970844 0.306166470050812 3.45400023460388 240 69 68
-0.041352566331625 0.305813699960709 3.45000004768372 242 70 72
-0.0320091359317303 0.305992394685745 3.4520001411438 236 66 68
-0.0226744152605534 0.306436657905579 3.45700025558472 239 70 69
-0.0132894068956375 0.30634868144989 3.45600008964539 237 71 68
-0.00391656719148159 0.306792229413986 3.4610002040863 236 70 67
0.00548500474542379 0.307324081659317 3.46700024604797 234 68 65
0.0148890502750874 0.307235032320023 3.46600008010864 237 71 68
0.0242385510355234 0.306525141000748 3.45800018310547 233 69 66
0.033593162894249 0.306258112192154 3.45500016212463 232 68 65
0.0430557429790497 0.306877136230469 3.46200013160706 234 70 67
0.0526016093790531 0.307761669158936 3.47200012207031 234 70 67
0.0618085563182831 0.306695818901062 3.46000027656555 235 71 66
0.0710324719548225 0.305984139442444 3.4520001411438 236 72 67
0.080259308218956 0.305449396371841 3.44600009918213 231 67 64
0.0897913500666618 0.306066602468491 3.45300006866455 231 67 64
0.0991887673735619 0.306151628494263 3.45400023460388 231 66 65
0.109251283109188 0.308097630739212 3.4760000705719 231 66 65
-0.199593305587769 0.295098215341568 3.43500018119812 255 80 80
-0.190112307667732 0.294847577810287 3.43200016021729 253 73 78
-0.180383563041687 0.294167101383209 3.42400026321411 255 75 80
-0.17074753344059 0.293572127819061 3.41700005531311 251 72 77
-0.161526992917061 0.293664157390594 3.41800022125244 255 80 85
-0.152968615293503 0.295044630765915 3.43400025367737 255 83 85
-0.144030079245567 0.295823395252228 3.44300007820129 253 77 77
-0.134533643722534 0.295484870672226 3.43900012969971 252 76 76
-0.125240504741669 0.295575588941574 3.44000005722046 244 68 68
-0.115469768643379 0.294463038444519 3.42700004577637 242 66 66
-0.10604802519083 0.294123500585556 3.42300009727478 255 77 77
-0.0965910479426384 0.29361167550087 3.41700005531311 245 67 69
-0.0876262933015823 0.294646233320236 3.42900013923645 248 72 74
-0.0784590467810631 0.295164912939072 3.43500018119812 247 72 70
-0.0692790970206261 0.295769155025482 3.44200015068054 250 75 73
-0.0598693527281284 0.295427858829498 3.43800020217896 248 75 73
-0.0503929071128368 0.294570595026016 3.4280002117157 244 71 69
-0.0411024130880833 0.294658243656158 3.42900013923645 244 73 71
-0.0318619795143604 0.295261144638062 3.43600010871887 242 73 72
-0.0225834473967552 0.295863687992096 3.44300007820129 240 71 69
-0.0132399201393127 0.295864343643188 3.44300007820129 237 71 68
-0.00389860919676721 0.296036541461945 3.44500017166138 240 74 69
0.00545515213161707 0.296294301748276 3.44800019264221 230 66 61
0.0148251773789525 0.296551704406738 3.45100021362305 232 68 63
0.0241623669862747 0.296207278966904 3.44700026512146 238 74 69
0.0333805233240128 0.295003116130829 3.43300008773804 233 69 64
0.0426220744848251 0.29448613524437 3.42700004577637 233 70 63
0.0520733259618282 0.295343637466431 3.4370002746582 235 71 66
0.0613285601139069 0.294997811317444 3.43300008773804 235 71 66
0.0706236064434052 0.294909447431564 3.43200016021729 230 66 63
0.0799828544259071 0.295078486204147 3.43400025367737 230 67 64
0.0893786698579788 0.295333087444305 3.4370002746582 234 70 67
0.0986755862832069 0.295243680477142 3.43600010871887 232 67 66
0.108123883605003 0.295583546161652 3.44000005722046 228 63 64
-0.198786973953247 0.284624308347702 3.42100024223328 255 89 87
-0.189066648483276 0.283965587615967 3.41300010681152 255 80 82
-0.179494455456734 0.283472955226898 3.40700006484985 255 79 79
-0.169904202222824 0.282896727323532 3.40000009536743 255 77 79
-0.160871222615242 0.283235490322113 3.40400004386902 252 76 78
-0.152172327041626 0.284239590167999 3.41600012779236 255 85 87
-0.143282309174538 0.284993767738342 3.42500019073486 255 80 80
-0.134029984474182 0.285081952810287 3.42600011825562 255 81 81
-0.124371282756329 0.284254491329193 3.41600012779236 250 75 73
-0.114901177585125 0.283759504556656 3.41000008583069 255 78 76
-0.105401277542114 0.283097803592682 3.40200018882751 246 68 68
-0.0962836444377899 0.283434271812439 3.4060001373291 251 73 73
-0.0871695056557655 0.283853709697723 3.41100025177002 247 71 71
-0.0779822543263435 0.284106343984604 3.41400027275085 242 67 65
-0.0688790753483772 0.284774750471115 3.42200016975403 243 70 68
-0.0594361908733845 0.284028112888336 3.41300010681152 243 72 70
-0.0500419437885284 0.283281117677689 3.40400004386902 245 74 72
-0.0407682880759239 0.283033102750778 3.40100026130676 238 67 65
-0.0316127799451351 0.283700197935104 3.40900015830994 234 65 63
-0.0224202945828438 0.284450173377991 3.41800022125244 243 74 72
-0.0131711885333061 0.285033345222473 3.42500019073486 240 71 69
-0.00387951405718923 0.285283327102661 3.4280002117157 232 66 61
0.00542212789878249 0.28520005941391 3.42700004577637 233 67 62
0.0147226173430681 0.285199671983719 3.42700004577637 234 68 65
0.0240300670266151 0.28528219461441 3.4280002117157 239 75 70
0.0332164503633976 0.28428253531456 3.41600012779236 238 74 69
0.0423127077519894 0.283116072416306 3.40200018882751 231 68 61
0.0515904016792774 0.283364027738571 3.40500020980835 229 66 59
0.0609913840889931 0.284110963344574 3.41400027275085 236 73 66
0.0703175216913223 0.284358233213425 3.41700005531311 234 70 65
0.0794733613729477 0.283939450979233 3.41200017929077 230 67 62
0.0886797979474068 0.283769965171814 3.41000008583069 236 72 69
0.0978463441133499 0.283516943454742 3.40700006484985 233 69 66
0.107247725129128 0.283929288387299 3.41200017929077 232 68 65
0.116880752146244 0.284840613603592 3.42300009727478 229 67 70
-0.198387175798416 0.274788796901703 3.41400027275085 234 68 77
-0.188519313931465 0.273910075426102 3.40300011634827 255 88 86
-0.178921222686768 0.273352950811386 3.39600014686584 255 82 82
-0.169510409235954 0.273037046194077 3.39200019836426 255 79 79
-0.16016797721386 0.272801280021667 3.38900017738342 255 79 81
-0.151197627186775 0.273209124803543 3.39400005340576 255 79 81
-0.142283320426941 0.2737777531147 3.40100026130676 250 74 74
-0.132978424429893 0.273621529340744 3.39900016784668 250 74 74
-0.123720325529575 0.273545563220978 3.39800024032593 253 77 77
-0.114062860608101 0.272503197193146 3.38500022888184 251 73 73
-0.105126187205315 0.273151040077209 3.39300012588501 254 76 76
-0.0961457192897797 0.273798614740372 3.40100026130676 245 67 67
-0.0869937241077423 0.274043321609497 3.40400004386902 242 66 66
-0.0777794495224953 0.27412673830986 3.40500020980835 248 73 71
-0.0685393437743187 0.274129301309586 3.40500020980835 248 75 73
-0.0592293366789818 0.273809522390366 3.40100026130676 248 75 73
-0.0498820208013058 0.273167371749878 3.39300012588501 248 75 73
-0.0406139120459557 0.272766441106796 3.38800024986267 247 74 72
-0.031344972550869 0.272123605012894 3.38000011444092 236 67 65
-0.022217744961381 0.272688120603561 3.38700008392334 240 69 67
-0.0130947446450591 0.274137943983078 3.40500020980835 243 72 70
-0.00385588593780994 0.27429923415184 3.40700006484985 236 67 65
0.00538434879854321 0.273977220058441 3.40300011634827 236 67 66
0.014607148244977 0.27373531460762 3.40000009536743 232 65 64
0.0238907262682915 0.274378687143326 3.40800023078918 235 69 66
0.0331009477376938 0.274055659770966 3.40400004386902 235 71 68
0.0422271601855755 0.273329764604568 3.39500021934509 236 73 70
0.0514710322022438 0.273489087820053 3.3970000743866 233 70 65
0.0606898441910744 0.273487120866776 3.3970000743866 236 73 68
0.0700524970889091 0.274048388004303 3.40400004386902 231 68 65
0.0792665481567383 0.273965239524841 3.40300011634827 233 70 67
0.0886049345135689 0.274284332990646 3.40700006484985 228 66 59
0.0976487919688225 0.273717522621155 3.40000009536743 231 69 62
0.10656001418829 0.272908896207809 3.39000010490417 233 73 64
0.115894638001919 0.273227006196976 3.39400005340576 227 68 57
0.126135215163231 0.27547687292099 3.42200016975403 223 70 62
-0.198045209050179 0.265068054199219 3.40800023078918 212 88 88
-0.187251508235931 0.262896686792374 3.38000011444092 248 84 81
-0.177978947758675 0.262747228145599 3.37800025939941 255 83 73
-0.16866660118103 0.262519717216492 3.37500023841858 255 83 81
-0.159511774778366 0.262525260448456 3.37500023841858 249 71 73
-0.150267258286476 0.262374877929688 3.3730001449585 255 79 81
-0.141158610582352 0.262457579374313 3.37400007247925 254 75 80
-0.132044017314911 0.262540012598038 3.37500023841858 255 79 81
-0.122777909040451 0.262310951948166 3.37200021743774 251 73 75
-0.113797202706337 0.262703895568848 3.37700009346008 247 69 71
-0.104603074491024 0.262629806995392 3.37600016593933 248 70 70
-0.0955836251378059 0.263022184371948 3.38100004196167 247 69 69
-0.0863833576440811 0.262947469949722 3.38000011444092 244 68 68
-0.0772795826196671 0.263183653354645 3.38300013542175 249 74 72
-0.0681189894676209 0.263263940811157 3.3840000629425 250 77 75
-0.0589875653386116 0.26349949836731 3.38700008392334 250 77 75
-0.0497808344662189 0.263423562049866 3.38600015640259 244 73 71
-0.0404594764113426 0.262569308280945 3.37500023841858 237 66 64
-0.0311976782977581 0.2617147564888 3.36400008201599 237 68 66
-0.0220873188227415 0.261949062347412 3.36700010299683 239 70 68
-0.0130028985440731 0.263038843870163 3.38100004196167 243 74 72
-0.0038345162756741 0.2635837495327 3.38800024986267 234 65 63
0.00536554772406816 0.263817101716995 3.39100027084351 232 62 64
0.014556098729372 0.263583362102509 3.38800024986267 233 66 67
0.0237653683871031 0.263738304376602 3.39000010490417 231 67 64
0.0329465083777905 0.263581782579422 3.38800024986267 235 72 69
0.0421539917588234 0.263658285140991 3.38900017738342 232 71 68
0.0514122061431408 0.263967841863632 3.39300012588501 237 77 71
0.0605668798089027 0.263732522726059 3.39000010490417 230 70 64
0.0697050616145134 0.263496905565262 3.38700008392334 235 74 71
0.0788034200668335 0.263183236122131 3.38300013542175 233 72 69
0.0880878418684006 0.263491541147232 3.38700008392334 235 72 67
0.0971351861953735 0.2630994617939 3.382000207901 231 71 64
0.106123588979244 0.262629210948944 3.37600016593933 232 71 60
0.11514737457037 0.262314289808273 3.37200021743774 231 72 59
0.124996855854988 0.263788282871246 3.39100027084351 229 74 64
-0.196773216128349 0.254177868366241 3.38600015640259 180 64 77
-0.18626044690609 0.252382427453995 3.36200022697449 251 72 77
-0.177405208349228 0.252763658761978 3.36700010299683 255 77 77
-0.168222397565842 0.252694249153137 3.36600017547607 251 74 72
-0.159138947725296 0.252774626016617 3.36700010299683 255 79 77
-0.149737611413002 0.25232920050621 3.36100006103516 255 80 80
-0.14036837220192 0.251883506774902 3.35500025749207 253 74 79
-0.131148532032967 0.251662701368332 3.35200023651123 255 77 82
-0.122199408710003 0.251967191696167 3.35600018501282 254 75 80
-0.113531403243542 0.252947092056274 3.36900019645691 245 66 71
-0.104420654475689 0.253025770187378 3.37000012397766 255 79 81
-0.0951627492904663 0.252728700637817 3.36600017547607 250 72 74
-0.0857984200119972 0.252055913209915 3.35700011253357 243 67 69
-0.0768938213586807 0.252734363079071 3.36600017547607 244 68 68
-0.0678797215223312 0.253187298774719 3.37200021743774 244 70 70
-0.0587979666888714 0.253489702939987 3.37600016593933 244 73 72
-0.0495178624987602 0.252890825271606 3.36800026893616 243 72 71
-0.0403289571404457 0.25259193778038 3.36400008201599 244 75 73
-0.0311523582786322 0.252217710018158 3.35900020599365 241 72 70
-0.0220683794468641 0.252594023942947 3.36400008201599 238 69 67
-0.0129802599549294 0.253420531749725 3.37500023841858 235 69 66
-0.00382785452529788 0.253946483135223 3.382000207901 236 70 67
0.00534990523010492 0.253871321678162 3.38100004196167 238 72 76
0.0144878448918462 0.253195226192474 3.37200021743774 233 63 67
0.0236189421266317 0.252969324588776 3.36900019645691 234 69 70
0.032772570848465 0.253043472766876 3.37000012397766 238 74 75
0.0419936999678612 0.253492742776871 3.37600016593933 232 73 71
0.0512472502887249 0.253941744565964 3.382000207901 232 75 72
0.0603366419672966 0.253564476966858 3.37700009346008 235 76 73
0.0693369433283806 0.252961665391922 3.36900019645691 234 73 70
0.0782003998756409 0.252058178186417 3.35700011253357 234 73 70
0.0873105376958847 0.252055436372757 3.35700011253357 233 73 67
0.096362940967083 0.251902282238007 3.35500025749207 229 69 63
0.105435557663441 0.251823872327805 3.35400009155273 229 70 67
0.114365801215172 0.251444876194 3.3490002155304 230 74 67
0.124153174459934 0.252867460250854 3.36800026893616 227 75 69
-0.185712367296219 0.242543801665306 3.35200023651123 249 71 81
-0.176778599619865 0.242766544222832 3.35500025749207 255 81 86
-0.167328149080276 0.242265403270721 3.34800004959106 251 75 75
-0.158198714256287 0.242198184132576 3.34700012207031 254 81 77
-0.148851379752159 0.24176886677742 3.34100008010864 253 79 83
-0.139828965067863 0.241845786571503 3.34200024604797 252 73 78
-0.130761489272118 0.241850078105927 3.34200024604797 247 68 74
-0.121620714664459 0.241709321737289 3.34000015258789 252 73 79
-0.112827368080616 0.24229197204113 3.34800004959106 247 70 76
-0.103711351752281 0.242223054170609 3.34700012207031 246 72 76
-0.0946569219231606 0.2422985881567 3.34800004959106 247 77 81
-0.0853155702352524 0.241577729582787 3.33800005912781 247 77 81
-0.0764851123094559 0.242304041981697 3.34800004959106 239 67 71
-0.0675396919250488 0.242812946438789 3.35500025749207 241 70 76
-0.0583644434809685 0.242525428533554 3.3510000705719 238 70 75
-0.0491224937140942 0.24180343747139 3.34100008010864 236 70 75
-0.0400785058736801 0.241949588060379 3.34300017356873 234 72 75
-0.0310049764811993 0.241950750350952 3.34300017356873 234 76 79
-0.021931329742074 0.241951584815979 3.34300017356873 235 81 77
-0.0128614539280534 0.242024526000023 3.34400010108948 233 71 72
-0.00378723163157701 0.242169559001923 3.34600019454956 229 67 68
0.00528836622834206 0.241880029439926 3.34200024604797 234 80 83
0.0143422298133373 0.241590186953545 3.33800005912781 226 75 77
0.0233953613787889 0.241517215967178 3.33700013160706 213 77 79
0.0324624292552471 0.241588696837425 3.33800005912781 208 80 82
0.0415472537279129 0.241732254624367 3.34000015258789 179 64 64
0.0506882444024086 0.242092669010162 3.34500026702881 178 71 69
0.0598025806248188 0.242235660552979 3.34700012207031 173 68 66
0.0687834918498993 0.24187171459198 3.34200024604797 174 65 63
0.0777137279510498 0.241435140371323 3.3360002040863 164 61 59
0.0867151543498039 0.241287767887115 3.33400011062622 160 76 70
-0.18754643201828 0.23575334250927 3.38500022888184 183 55 73
-0.177837893366814 0.235062390565872 3.37500023841858 246 79 88
-0.16743329167366 0.23332642018795 3.35000014305115 251 85 94
-0.157400071620941 0.23193833231926 3.33000016212463 234 67 75
-0.147697582840919 0.230898186564445 3.31500005722046 228 61 70
-0.138912796974182 0.231250837445259 3.32000017166138 239 70 79
-0.130022123456001 0.23146390914917 3.32300019264221 223 52 61
-0.121005475521088 0.231467738747597 3.32300019264221 235 64 72
-0.112022072076797 0.231540963053703 3.32400012016296 233 64 72
-0.103156827390194 0.231892570853233 3.32900023460388 233 65 69
-0.0942923277616501 0.232313543558121 3.33500027656555 228 62 66
-0.0851648896932602 0.232107311487198 3.33200025558472 237 71 75
-0.0762590393424034 0.23252771794796 3.33800005912781 228 70 74
-0.0671995654702187 0.232529953122139 3.33800005912781 238 84 88
-0.0580005124211311 0.231974616646767 3.33000016212463 243 98 104
-0.0488446727395058 0.231418937444687 3.32200026512146 241 111 115
-0.0398879423737526 0.231768622994423 3.3270001411438 220 123 129
-0.0309132020920515 0.232187718153 3.33300018310547 234 142 144
-0.0218598544597626 0.232118859887123 3.33200025558472 247 154 152
