-0.0694306790828705 0.321431338787079 3.35000014305115 223 114 100
-0.462012052536011 0.312203019857407 3.35400009155273 222 124 117
-0.453448295593262 0.312593549489975 3.3580002784729 255 119 112
-0.44486129283905 0.312983810901642 3.36200022697449 253 117 105
-0.435862272977829 0.313094556331635 3.36300015449524 238 118 77
-0.419333934783936 0.31443253159523 3.37700009346008 255 255 117
-0.409796088933945 0.314170062541962 3.37400007247925 255 255 101
-0.399204522371292 0.313069194555283 3.36200022697449 255 255 95
-0.38995298743248 0.312992215156555 3.36100006103516 255 255 93
-0.380592346191406 0.312821865081787 3.35900020599365 255 255 96
-0.371573030948639 0.312930554151535 3.3600001335144 255 255 113
-0.362115502357483 0.312666356563568 3.35700011253357 255 255 103
-0.353303968906403 0.312960714101791 3.3600001335144 255 255 102
-0.344679713249207 0.313441067934036 3.36500024795532 254 255 102
-0.335927337408066 0.313827961683273 3.36900019645691 255 255 109
-0.32734602689743 0.314400881528854 3.37500023841858 255 255 113
-0.318636626005173 0.314880311489105 3.38000011444092 255 255 104
-0.309074968099594 0.314521014690399 3.37600016593933 255 255 108
-0.299978107213974 0.314627140760422 3.37700009346008 255 255 105
-0.290358036756516 0.314173936843872 3.37200021743774 255 255 94
-0.280513972043991 0.313440799713135 3.36400008201599 255 255 102
-0.271277070045471 0.313359469175339 3.36300015449524 255 255 140
-0.253568887710571 0.314127594232559 3.37100005149841 255 130 110
-0.244390740990639 0.314138412475586 3.37100005149841 255 124 108
-0.235141888260841 0.314055651426315 3.37000012397766 255 124 111
-0.225361168384552 0.313226968050003 3.36100006103516 255 122 110
-0.216014623641968 0.312957018613815 3.3580002784729 255 122 110
-0.207299634814262 0.313618689775467 3.36500024795532 255 126 113
-0.197898015379906 0.313254743814468 3.36100006103516 255 124 112
-0.188573643565178 0.31298366189003 3.3580002784729 255 121 112
-0.179104581475258 0.312432527542114 3.35200023651123 255 125 116
-0.169921055436134 0.312346994876862 3.3510000705719 255 124 115
-0.160550430417061 0.311888307332993 3.34600019454956 255 128 119
-0.151251643896103 0.311522334814072 3.34200024604797 255 126 117
-0.142441958189011 0.312181383371353 3.3490002155304 255 127 115
-0.133354738354683 0.312280744314194 3.35000014305115 252 116 103
-0.124187372624874 0.312193244695663 3.3490002155304 255 118 107
-0.114715769886971 0.311266332864761 3.33900022506714 255 116 105
-0.105804324150085 0.311830639839172 3.34500026702881 255 123 110
-0.0969753712415695 0.312767416238785 3.35500025749207 255 124 111
-0.0880391597747803 0.313517332077026 3.36300015449524 254 118 106
-0.0787541046738625 0.313054949045181 3.3580002784729 251 116 103
-0.0693923756480217 0.312125980854034 3.34800004959106 245 116 104
-0.0600488968193531 0.311010122299194 3.3360002040863 249 122 112
-0.0509080737829208 0.310732960700989 3.33300018310547 249 122 113
-0.0417959578335285 0.310548573732376 3.33100008964539 241 123 116
-0.0327044054865837 0.310457020998001 3.33000016212463 243 129 122
-0.0236749313771725 0.311110854148865 3.33700013160706 229 135 127
-0.0146246701478958 0.312137305736542 3.34800004959106 217 127 119
-0.478516012430191 0.301964223384857 3.34200024604797 238 144 135
-0.469025909900665 0.30171126127243 3.33900022506714 248 118 112
-0.46134141087532 0.30263277888298 3.3490002155304 251 111 106
-0.452520757913589 0.302831143140793 3.3510000705719 255 121 112
-0.443290948867798 0.302758187055588 3.35000014305115 255 114 105
-0.434324264526367 0.302865713834763 3.3510000705719 255 118 109
-0.425731480121613 0.303244113922119 3.35500025749207 253 127 93
-0.416867196559906 0.303441494703293 3.35700011253357 246 225 111
-0.407140403985977 0.303005814552307 3.35200023651123 255 255 120
-0.397201925516129 0.302389025688171 3.34500026702881 255 255 99
-0.388692498207092 0.302856743335724 3.35000014305115 255 255 98
-0.38049453496933 0.303595453500748 3.3580002784729 255 255 102
-0.370924651622772 0.303248912096024 3.35400009155273 255 255 110
-0.361159473657608 0.302721232175827 3.34800004959106 255 255 105
-0.351846367120743 0.302554875612259 3.34600019454956 255 255 105
-0.343157470226288 0.302930772304535 3.35000014305115 255 255 111
-0.333946973085403 0.302854210138321 3.3490002155304 255 255 104
-0.32571080327034 0.303681671619415 3.3580002784729 255 255 110
-0.316575944423676 0.303694903850555 3.3580002784729 255 255 101
-0.307348430156708 0.30361732840538 3.35700011253357 254 255 90
-0.29768106341362 0.30308723449707 3.3510000705719 255 255 94
-0.288217484951019 0.302737653255463 3.34700012207031 255 255 95
-0.279024839401245 0.302659034729004 3.34600019454956 255 255 103
-0.27007856965065 0.302851438522339 3.34800004959106 255 255 133
-0.25222572684288 0.303325742483139 3.35300016403198 255 160 124
-0.243386209011078 0.303698062896729 3.35700011253357 252 123 101
-0.234523996710777 0.304070085287094 3.36100006103516 255 127 109
-0.224365070462227 0.302722752094269 3.34600019454956 253 118 106
-0.214930310845375 0.302279710769653 3.34100008010864 255 125 113
-0.205768436193466 0.302198231220245 3.34000015258789 255 119 114
-0.196964502334595 0.302659273147583 3.34500026702881 255 121 113
-0.187739476561546 0.302486538887024 3.34300017356873 255 126 117
-0.178578048944473 0.302403897047043 3.34200024604797 255 123 114
-0.169472098350525 0.302411407232285 3.34200024604797 254 119 107
-0.160173550248146 0.302056521177292 3.33800005912781 255 121 109
-0.150850936770439 0.301610767841339 3.33300018310547 255 126 114
-0.141767665743828 0.301617115736008 3.33300018310547 255 120 107
-0.133081927895546 0.302528023719788 3.34300017356873 255 117 104
-0.123859077692032 0.302262097597122 3.34000015258789 255 125 114
-0.114652097225189 0.301995754241943 3.33700013160706 255 124 111
-0.105397768318653 0.301548063755035 3.33200025558472 255 119 104
-0.0966038778424263 0.302457511425018 3.34200024604797 255 125 110
-0.0875194519758224 0.302551984786987 3.34300017356873 255 121 106
-0.0783354192972183 0.302284091711044 3.34000015258789 255 123 108
-0.0691674500703812 0.30201581120491 3.33700013160706 255 126 113
-0.0600875541567802 0.302109122276306 3.33800005912781 255 119 106
-0.0509103313088417 0.301659017801285 3.33300018310547 255 119 108
-0.0417727157473564 0.301299005746841 3.32900023460388 255 118 105
-0.0326960347592831 0.301300674676895 3.32900023460388 255 117 106
-0.0236405096948147 0.301573425531387 3.33200025558472 253 117 109
-0.0145728988572955 0.30193629860878 3.3360002040863 247 123 117
-0.475527077913284 0.291037976741791 3.32100009918213 255 129 123
-0.467217475175858 0.291493713855743 3.32600021362305 251 111 106
-0.45984348654747 0.292562752962112 3.33800005912781 255 114 109
-0.450377315282822 0.292316913604736 3.33500027656555 255 112 109
-0.441455334424973 0.292421460151672 3.3360002040863 251 102 98
-0.431748688220978 0.291999727487564 3.33100008964539 251 99 95
-0.423083066940308 0.292279034852982 3.33400011062622 255 117 113
-0.414275586605072 0.292470425367355 3.3360002040863 255 132 108
-0.404484063386917 0.291960150003433 3.33000016212463 255 163 112
-0.395436316728592 0.291975677013397 3.33000016212463 255 255 144
-0.386619299650192 0.292166233062744 3.33200025558472 255 255 123
-0.378583252429962 0.292970329523087 3.34100008010864 255 255 111
-0.369612276554108 0.293072700500488 3.34200024604797 255 255 100
-0.360203057527542 0.292823970317841 3.33900022506714 255 255 91
-0.351019233465195 0.292750358581543 3.33800005912781 255 255 97
-0.342044442892075 0.292851805686951 3.33900022506714 255 255 111
-0.332863569259644 0.292777538299561 3.33800005912781 255 255 113
-0.323687016963959 0.292702943086624 3.33700013160706 255 255 110
-0.314891785383224 0.292978912591934 3.34000015258789 255 255 126
-0.305346667766571 0.292552769184113 3.33500027656555 255 255 147
-0.295649975538254 0.291950851678848 3.32800006866455 255 255 157
-0.286334782838821 0.291699469089508 3.32500004768372 255 235 145
-0.269363731145859 0.292950361967087 3.33900022506714 255 142 108
-0.251258254051209 0.293059408664703 3.34000015258789 250 140 108
-0.242236316204071 0.293157309293747 3.34100008010864 254 121 101
-0.232859045267105 0.29281610250473 3.33700013160706 255 126 108
-0.222899198532104 0.291684776544571 3.32400012016296 255 124 112
-0.213331013917923 0.29099178314209 3.31600022315979 255 126 114
-0.204668134450912 0.29152700304985 3.32200026512146 255 124 112
-0.195971742272377 0.292061865329742 3.32800006866455 255 124 112
-0.186848819255829 0.291982084512711 3.3270001411438 255 131 109
-0.178051248192787 0.292428553104401 3.33200025558472 252 117 104
-0.169073611497879 0.292611360549927 3.33400011062622 255 126 114
-0.159892469644547 0.292442739009857 3.33200025558472 255 122 110
-0.150450006127357 0.291747063398361 3.32400012016296 255 121 109
-0.141305819153786 0.29157766699791 3.32200026512146 255 121 109
-0.13241083920002 0.291934549808502 3.32600021362305 255 120 108
-0.123530611395836 0.292378813028336 3.33100008964539 255 123 114
-0.114347785711288 0.292120486497879 3.32800006866455 255 121 110
-0.105117596685886 0.29168626666069 3.32300019264221 255 118 103
-0.0960587784647942 0.291690498590469 3.32300019264221 255 123 108
-0.0869210511445999 0.291431039571762 3.32000017166138 255 124 109
-0.0778697058558464 0.291434556245804 3.32000017166138 255 124 106
-0.0689009502530098 0.291788786649704 3.32400012016296 255 123 110
-0.0598921291530132 0.292054861783981 3.3270001411438 255 124 113
-0.0508055984973907 0.291969448328018 3.32600021362305 255 118 107
-0.0416364781558514 0.29126912355423 3.31800007820129 255 123 111
-0.0325992256402969 0.29135850071907 3.31900024414063 255 117 106
-0.0235421936959028 0.291271895170212 3.31800007820129 255 123 115
-0.0145036308094859 0.291448324918747 3.32000017166138 244 116 110
-0.480323851108551 0.279528498649597 3.29200005531311 230 134 125
-0.472250998020172 0.28005513548851 3.29800009727478 255 116 111
-0.464003652334213 0.280496686697006 3.3030002117157 255 113 109
-0.456278622150421 0.281277716159821 3.3120002746582 255 111 107
-0.447422981262207 0.281379193067551 3.31300020217896 255 107 104
-0.439089775085449 0.281820118427277 3.31800007820129 255 104 102
-0.430079877376556 0.281836181879044 3.31800007820129 250 95 93
-0.421195477247238 0.281936943531036 3.31900024414063 255 110 106
-0.411434948444366 0.281442761421204 3.31300020217896 255 112 95
-0.401705622673035 0.280948251485825 3.30700016021729 255 119 100
-0.392957597970963 0.281133115291595 3.30900025367737 220 132 66
-0.384429454803467 0.281487673521042 3.31300020217896 255 253 146
-0.376218229532242 0.282096892595291 3.32000017166138 255 255 120
-0.367303997278214 0.282196015119553 3.32100009918213 255 255 105
-0.35838308930397 0.282294869422913 3.32200026512146 255 255 98
-0.349560648202896 0.282478451728821 3.32400012016296 255 255 116
-0.340623646974564 0.282576709985733 3.32500004768372 255 255 125
-0.331281125545502 0.282334804534912 3.32200026512146 255 255 131
-0.322050720453262 0.282177478075027 3.32000017166138 240 230 119
-0.303985387086868 0.282201915979385 3.32000017166138 217 132 72
-0.294062674045563 0.281363666057587 3.31000018119812 241 115 73
-0.284968376159668 0.281290084123611 3.30900025367737 245 115 89
-0.276795834302902 0.282151252031326 3.31900024414063 248 118 100
-0.26897120475769 0.283437252044678 3.33400011062622 255 125 107
-0.259348928928375 0.282852619886398 3.3270001411438 255 123 105
-0.250064760446548 0.282607734203339 3.32400012016296 254 116 101
-0.240650996565819 0.282192438840866 3.31900024414063 255 120 109
-0.231682226061821 0.282286912202835 3.32000017166138 255 126 114
-0.221835345029831 0.281275719404221 3.30800008773804 255 122 111
-0.213339745998383 0.281964689493179 3.31600022315979 255 123 112
-0.204368442296982 0.28205817937851 3.31700015068054 255 123 111
-0.19544979929924 0.282236307859421 3.31900024414063 255 119 110
-0.186014071106911 0.281648814678192 3.3120002746582 255 127 115
-0.17677603662014 0.281315952539444 3.30800008773804 255 122 109
-0.167762011289597 0.281322985887527 3.30800008773804 255 125 110
-0.158987283706665 0.28175488114357 3.31300020217896 255 124 111
-0.149732023477554 0.281335949897766 3.30800008773804 255 127 115
-0.140801221132278 0.281511962413788 3.31000018119812 255 123 114
-0.131898790597916 0.28177273273468 3.31300020217896 255 124 119
-0.123016536235809 0.282118141651154 3.31700015068054 254 114 109
-0.113905854523182 0.281952887773514 3.31500005722046 255 117 112
-0.104552559554577 0.281106859445572 3.3050000667572 255 120 109
-0.0953400805592537 0.2805155813694 3.29800009727478 255 118 107
-0.0863225013017654 0.280434250831604 3.29700016975403 255 117 102
-0.0773803889751434 0.280607789754868 3.29900026321411 255 119 104
-0.0685099884867668 0.281121104955673 3.3050000667572 255 124 111
-0.0595885962247849 0.281549066305161 3.31000018119812 255 118 107
-0.0505480393767357 0.28146630525589 3.30900025367737 255 117 106
-0.0414876416325569 0.281213015317917 3.30600023269653 255 117 106
-0.0324827209115028 0.281299591064453 3.30700016021729 255 122 113
-0.023465134203434 0.281300753355026 3.30700016021729 255 127 121
-0.487785369157791 0.269738435745239 3.28200006484985 255 126 120
-0.478735834360123 0.269673079252243 3.2810001373291 255 106 102
-0.469547033309937 0.269525229930878 3.27900004386902 255 105 103
-0.461070030927658 0.269788175821304 3.28200006484985 255 107 103
-0.453539580106735 0.270626366138458 3.29200005531311 255 111 109
-0.44568344950676 0.271300047636032 3.30000019073486 255 104 102
-0.436855912208557 0.271397948265076 3.30100011825562 255 104 100
-0.428151220083237 0.271577924489975 3.3030002117157 251 99 95
-0.41943421959877 0.271757632493973 3.3050000667572 253 101 97
-0.409959822893143 0.271443754434586 3.30100011825562 254 102 96
-0.40087017416954 0.271376222372055 3.30000019073486 255 103 99
-0.391903400421143 0.271390736103058 3.30000019073486 255 107 105
-0.382703185081482 0.271240442991257 3.29800009727478 252 111 100
-0.355591624975204 0.271116942167282 3.29600024223328 255 151 118
-0.347260236740112 0.271623611450195 3.30200004577637 255 125 99
-0.338690131902695 0.271965503692627 3.30600023269653 248 114 91
-0.329797863960266 0.272060334682465 3.30700016021729 255 122 104
-0.320510983467102 0.271825790405273 3.30400013923645 250 112 99
-0.311993569135666 0.272249132394791 3.30900025367737 255 120 107
-0.302623689174652 0.271931678056717 3.3050000667572 254 123 101
-0.292830258607864 0.27120253443718 3.29600024223328 247 108 90
-0.283515304327011 0.270884364843369 3.29200005531311 255 115 104
-0.275305390357971 0.271635681390762 3.30100011825562 255 113 106
-0.267448782920837 0.272798180580139 3.31500005722046 255 122 113
-0.258501619100571 0.272890657186508 3.31600022315979 255 125 112
-0.249322265386581 0.272735863924026 3.31400012969971 251 113 100
-0.239645346999168 0.272004693746567 3.3050000667572 255 124 111
-0.230016499757767 0.271273076534271 3.29600024223328 255 120 111
-0.2210393846035 0.271281868219376 3.29600024223328 255 116 107
-0.212190091609955 0.271454930305481 3.29800009727478 255 121 112
-0.203329116106033 0.271627724170685 3.30000019073486 253 114 105
-0.194220900535583 0.271470904350281 3.29800009727478 255 121 112
-0.184785842895508 0.270819842815399 3.29000020027161 255 121 110
-0.175393670797348 0.270168393850327 3.28200006484985 255 121 110
-0.166602283716202 0.270422071218491 3.28500008583069 255 123 108
-0.15793788433075 0.270922482013702 3.29100012779236 255 123 108
-0.149013802409172 0.271010845899582 3.29200005531311 255 127 114
-0.140083730220795 0.27109894156456 3.29300022125244 254 115 104
-0.131267085671425 0.271433621644974 3.29700016975403 255 120 113
-0.122428119182587 0.271767973899841 3.30100011825562 255 117 112
-0.113120146095753 0.271031707525253 3.29200005531311 254 114 107
-0.103987343609333 0.270624399185181 3.28700017929077 255 118 109
-0.0948814004659653 0.270216703414917 3.28200006484985 255 119 108
-0.0860118046402931 0.270467311143875 3.28500008583069 255 119 106
-0.0770316869020462 0.270388245582581 3.28400015830994 255 121 106
-0.068077452480793 0.270391166210175 3.28400015830994 255 120 107
-0.0590329170227051 0.269982010126114 3.27900004386902 255 121 110
-0.0501681827008724 0.270395904779434 3.28400015830994 254 115 106
-0.0412132404744625 0.270397752523422 3.28400015830994 255 118 111
-0.0322974175214767 0.270728558301926 3.28800010681152 251 127 122
-0.49503967165947 0.259923368692398 3.27100014686584 247 112 108
-0.486910283565521 0.260337114334106 3.27600026130676 248 95 93
-0.477293103933334 0.259956002235413 3.27100014686584 255 99 96
-0.467271983623505 0.259336173534393 3.26300024986267 255 99 97
-0.458697706460953 0.259510934352875 3.26500010490417 255 106 104
-0.451488852500916 0.260480374097824 3.27700018882751 255 102 100
-0.443538069725037 0.261052161455154 3.28400015830994 255 110 108
-0.434621512889862 0.261067390441895 3.28400015830994 255 106 102
-0.4251848757267 0.260764330625534 3.28000020980835 255 114 110
-0.41665706038475 0.26101753115654 3.28300023078918 255 112 108
-0.407738924026489 0.26103201508522 3.28300023078918 255 110 106
-0.399183869361877 0.261284798383713 3.28600025177002 255 109 109
-0.390017330646515 0.261139720678329 3.28400015830994 253 99 102
-0.381440579891205 0.261391997337341 3.28700017929077 255 106 103
-0.372279524803162 0.261246412992477 3.28500008583069 255 114 105
-0.363459974527359 0.26133918762207 3.28600025177002 252 111 100
-0.353662610054016 0.260715842247009 3.27800011634827 251 109 94
-0.344643771648407 0.260648936033249 3.27700018882751 255 115 103
-0.336141377687454 0.260979413986206 3.2810001373291 255 109 101
-0.327815473079681 0.261468797922134 3.28700017929077 255 108 104
-0.318388640880585 0.261082887649536 3.28200006484985 255 109 105
-0.310402244329453 0.261889934539795 3.29200005531311 255 119 110
-0.30116993188858 0.261662572622299 3.28900027275085 255 113 105
-0.291686236858368 0.261196166276932 3.28300023078918 255 114 106
-0.282234132289886 0.260729432106018 3.27700018882751 255 115 104
-0.273814558982849 0.261217147111893 3.28300023078918 255 115 104
-0.265683978796005 0.262022912502289 3.29300022125244 255 114 105
-0.257108181715012 0.262430518865585 3.29800009727478 255 116 107
-0.247827082872391 0.262121737003326 3.29400014877319 255 116 109
-0.237769171595573 0.260937184095383 3.27900004386902 255 120 113
-0.228908687829971 0.261025577783585 3.28000020980835 255 117 112
-0.220041885972023 0.26111364364624 3.2810001373291 255 117 112
-0.211490541696548 0.261599332094193 3.28700017929077 253 109 102
-0.202474340796471 0.261527627706528 3.28600025177002 255 113 108
-0.193286135792732 0.261216789484024 3.28200006484985 255 122 115
-0.183669656515121 0.260268896818161 3.27000021934509 255 117 110
-0.174652278423309 0.260116547346115 3.26800012588501 255 116 109
-0.166050866246223 0.260600626468658 3.27400016784668 255 117 108
-0.157512098550797 0.261243641376495 3.28200006484985 252 111 102
-0.148295372724533 0.260771900415421 3.27600026130676 255 123 108
-0.139536172151566 0.261095851659775 3.28000020980835 255 119 110
-0.130635172128677 0.261180698871613 3.2810001373291 255 116 109
-0.1216911226511 0.261185526847839 3.2810001373291 255 116 109
-0.112299866974354 0.26015517115593 3.26800012588501 255 122 113
-0.103327065706253 0.260000169277191 3.26600027084351 255 120 109
-0.0943358317017555 0.259765118360519 3.26300024986267 255 120 107
-0.0855962559580803 0.260246276855469 3.26900005340576 255 125 112
-0.0765655785799026 0.259851396083832 3.26400017738342 255 121 106
-0.0676655173301697 0.259854197502136 3.26400017738342 255 124 111
-0.0586931705474854 0.259538173675537 3.26000022888184 255 121 110
-0.0498187951743603 0.259619921445847 3.26100015640259 255 123 114
-0.0410015173256397 0.26009938120842 3.26700019836426 255 120 115
-0.0321022309362888 0.260180413722992 3.26800012588501 239 144 139
-0.502078354358673 0.250091344118118 3.2590000629425 250 111 117
-0.493542492389679 0.250260889530182 3.26100015640259 255 98 103
-0.486183166503906 0.251044243574142 3.27100014686584 255 101 102
-0.477163076400757 0.250983208417892 3.27000021934509 255 103 101
-0.467717319726944 0.250691711902618 3.26600027084351 255 97 95
-0.458853662014008 0.250707000494003 3.26600027084351 252 95 93
-0.451779633760452 0.251720041036606 3.27900004386902 255 106 104
-0.443012893199921 0.25181171298027 3.28000020980835 255 106 104
-0.43238639831543 0.250828355550766 3.26700019836426 255 104 102
-0.422088235616684 0.249998152256012 3.25600004196167 255 104 102
-0.413625329732895 0.250242650508881 3.2590000629425 255 106 106
-0.405517399311066 0.250717282295227 3.26500010490417 255 105 105
-0.397739917039871 0.251422137022018 3.27400016784668 255 104 104
-0.388724505901337 0.251358836889267 3.27300024032593 255 110 110
-0.380061328411102 0.251525670289993 3.27500009536743 255 104 104
-0.371046036481857 0.251461923122406 3.27400016784668 255 103 99
-0.362034857273102 0.25139781832695 3.27300024032593 255 104 100
-0.351733088493347 0.250411719083786 3.26000022888184 255 109 101
-0.342868119478226 0.250423908233643 3.26000022888184 255 107 99
-0.334001868963242 0.250435799360275 3.26000022888184 252 104 97
-0.325433611869812 0.250677913427353 3.26300024986267 255 109 102
-0.316459894180298 0.25061246752739 3.26200008392334 255 114 107
-0.307867556810379 0.250854015350342 3.26500010490417 255 109 105
-0.298983126878738 0.250864863395691 3.26500010490417 255 111 107
-0.290008723735809 0.250798583030701 3.26400017738342 255 110 102
-0.281210899353027 0.250885665416718 3.26500010490417 255 117 109
-0.272656887769699 0.251203000545502 3.26900005340576 255 121 110
-0.264241427183151 0.25167378783226 3.27500009536743 255 115 107
-0.255480468273163 0.251836895942688 3.27700018882751 255 109 101
-0.246331453323364 0.251615464687347 3.27400016784668 253 109 102
-0.236762762069702 0.250932574272156 3.26500010490417 248 104 99
-0.22745156288147 0.250479906797409 3.2590000629425 255 116 111
-0.21864165365696 0.250564932823181 3.26000022888184 255 115 110
-0.209889858961105 0.25072655081749 3.26200008392334 255 116 111
-0.201372772455215 0.251195311546326 3.26800012588501 255 111 107
-0.191879898309708 0.25043386220932 3.25800013542175 255 116 111
-0.183114856481552 0.250594526529312 3.26000022888184 255 114 109
-0.174551963806152 0.251062393188477 3.26600027084351 255 116 111
-0.166158586740494 0.251837432384491 3.27600026130676 255 118 111
-0.156942114233971 0.251382172107697 3.27000021934509 254 108 110
-0.147576674818993 0.250619113445282 3.26000022888184 253 109 102
-0.138605520129204 0.250470668077469 3.25800013542175 255 117 110
-0.130082681775093 0.251167595386505 3.26700019836426 255 119 110
-0.121065191924572 0.250941634178162 3.26400017738342 255 119 112
-0.111891753971577 0.250330924987793 3.25600004196167 255 119 110
-0.102729871869087 0.249643042683601 3.24700021743774 255 127 116
-0.0939924940466881 0.249954268336296 3.25100016593933 255 127 114
-0.0852329283952713 0.250265181064606 3.25500011444092 255 125 110
-0.0763573721051216 0.250268191099167 3.25500011444092 255 118 103
-0.0673985928297043 0.249963343143463 3.25100016593933 255 121 110
-0.0583713389933109 0.249273717403412 3.24200010299683 255 116 105
-0.0495151430368423 0.249198853969574 3.24100017547607 255 123 115
-0.0407269671559334 0.249508112668991 3.24500012397766 247 121 115
-0.508423209190369 0.240028709173203 3.24300026893616 240 105 120
-0.500399529933929 0.240414455533028 3.2480001449585 247 87 98
-0.491287887096405 0.240281879901886 3.24600005149841 255 96 103
-0.483820557594299 0.24096342921257 3.25500011444092 255 102 105
-0.474843621253967 0.240904539823532 3.25400018692017 255 103 104
-0.4665866792202 0.241215616464615 3.25800013542175 255 97 98
-0.457042098045349 0.240860149264336 3.25300025939941 255 100 100
-0.449452102184296 0.241541102528572 3.26200008392334 255 99 102
-0.440461128950119 0.241481393575668 3.26100015640259 254 98 101
-0.429753571748734 0.240458756685257 3.24700021743774 253 97 100
-0.419250249862671 0.239509835839272 3.23400020599365 253 98 98
-0.410719931125641 0.239671528339386 3.23600006103516 255 98 101
-0.401929050683975 0.239684909582138 3.23600006103516 255 103 106
-0.394351631402969 0.240438744425774 3.24600005149841 249 93 96
-0.385768413543701 0.240599870681763 3.2480001449585 255 109 112
-0.378565609455109 0.241649687290192 3.26200008392334 255 108 111
-0.36981201171875 0.241736307740211 3.26300024986267 255 111 109
-0.36127296090126 0.241970837116241 3.26600027084351 255 104 100
-0.351205676794052 0.24116787314415 3.25500011444092 255 108 104
-0.342143714427948 0.24103145301342 3.25300025939941 255 115 111
-0.332783937454224 0.240672439336777 3.2480001449585 255 107 103
-0.32384917140007 0.2406095713377 3.24700021743774 255 111 107
-0.314821630716324 0.240472286939621 3.24500012397766 255 111 107
-0.30674684047699 0.241075858473778 3.25300025939941 253 103 99
-0.297711551189423 0.240938052535057 3.25100016593933 255 107 103
-0.288774996995926 0.240874081850052 3.25000023841858 255 110 102
-0.279756605625153 0.240735724568367 3.2480001449585 255 111 103
-0.271332025527954 0.241115942597389 3.25300025939941 255 110 99
-0.262798488140106 0.241421759128571 3.257000207901 254 108 100
-0.253774374723434 0.241282552480698 3.25500011444092 255 111 104
-0.244835466146469 0.24121718108654 3.25400018692017 255 110 106
-0.235465958714485 0.240706756711006 3.24700021743774 255 114 110
-0.226273238658905 0.240344196557999 3.24200010299683 255 116 112
-0.217039853334427 0.239907249808311 3.23600006103516 255 112 109
-0.208739191293716 0.240507915616035 3.24400019645691 255 112 108
-0.199901148676872 0.240515187382698 3.24400019645691 255 113 109
-0.191003426909447 0.240448012948036 3.24300026893616 255 109 105
-0.182335093617439 0.24067710340023 3.24600005149841 254 107 103
-0.173970401287079 0.241350799798965 3.25500011444092 255 116 105
-0.165150210261345 0.241431057453156 3.25600004196167 255 113 106
-0.155891939997673 0.24084360897541 3.2480001449585 255 109 116
-0.146767184138298 0.24040412902832 3.24200010299683 255 112 107
-0.138057515025139 0.240631759166718 3.24500012397766 255 118 113
-0.129370734095573 0.240933194756508 3.24900007247925 255 119 112
-0.12043908983469 0.240789383649826 3.24700021743774 254 112 105
-0.111311674118042 0.240200325846672 3.23900008201599 255 115 106
-0.102195791900158 0.239536747336388 3.23000025749207 255 116 107
-0.0934755131602287 0.239762753248215 3.23300004005432 251 113 100
-0.08476472645998 0.240062698721886 3.23700022697449 255 123 110
-0.0760786831378937 0.24051059782505 3.24300026893616 254 115 104
-0.0672144964337349 0.240439012646675 3.24200010299683 255 116 107
-0.0582114495337009 0.239773809909821 3.23300004005432 255 112 103
-0.0493030846118927 0.239330783486366 3.22700023651123 255 123 117
-0.514679431915283 0.230053409934044 3.22700023651123 244 117 140
-0.506557285785675 0.230353757739067 3.23100018501282 254 93 108
-0.498412042856216 0.230654016137123 3.2350001335144 255 99 108
-0.489183992147446 0.230454966425896 3.23200011253357 255 100 103
-0.480713993310928 0.230612307786942 3.23400020599365 255 98 101
-0.47252345085144 0.230912059545517 3.23800015449524 255 94 95
-0.464309811592102 0.231211706995964 3.24200010299683 255 98 101
-0.455089390277863 0.231011897325516 3.23900008201599 255 104 107
-0.446572750806808 0.231168553233147 3.24100017547607 255 99 102
-0.437098294496536 0.230825632810593 3.23600006103516 255 111 114
-0.427384853363037 0.230339869856834 3.22900009155273 255 104 108
-0.417318999767303 0.229639753699303 3.21900010108948 254 96 99
-0.40844851732254 0.229581490159035 3.21800017356873 251 90 95
-0.399333655834198 0.229380279779434 3.21500015258789 255 103 106
-0.391448646783829 0.229892358183861 3.22200012207031 250 92 95
-0.383643060922623 0.230475604534149 3.23000025749207 255 104 108
-0.376140832901001 0.231272742152214 3.24100017547607 255 102 106
-0.367330729961395 0.231284752488136 3.24100017547607 255 106 106
-0.358298152685165 0.231153801083565 3.23900008201599 255 106 106
-0.34938308596611 0.231093987822533 3.23800015449524 255 107 103
-0.340156674385071 0.230819791555405 3.23400020599365 255 109 105
-0.330848306417465 0.230473935604095 3.22900009155273 255 112 108
-0.321765452623367 0.230270549654961 3.2260000705719 255 109 105
-0.312988847494125 0.230281054973602 3.2260000705719 255 112 108
-0.304399698972702 0.230434104800224 3.22800016403198 255 106 102
-0.296073257923126 0.2308010160923 3.23300004005432 255 107 101
-0.287096530199051 0.230667993426323 3.23100018501282 255 110 102
-0.278215795755386 0.230606123805046 3.23000025749207 255 113 102
-0.269506245851517 0.230686709284782 3.23100018501282 255 115 107
-0.260870933532715 0.230838447809219 3.23300004005432 255 113 105
-0.25206783413887 0.230847120285034 3.23300004005432 255 112 108
-0.243414282798767 0.230998352169991 3.2350001335144 255 115 111
-0.234168753027916 0.230578035116196 3.22900009155273 255 111 108
-0.224675789475441 0.22987174987793 3.21900010108948 254 105 102
-0.215303510427475 0.22923655807972 3.21000003814697 255 111 108
-0.206880375742912 0.229600861668587 3.21500015258789 255 108 104
-0.198367536067963 0.229893520474434 3.21900010108948 255 107 103
-0.189891055226326 0.230257302522659 3.2240002155304 255 121 114
-0.181611239910126 0.230906471610069 3.23300004005432 255 116 109
-0.172907561063766 0.231055468320847 3.2350001335144 255 112 104
-0.163989394903183 0.230918437242508 3.23300004005432 255 111 103
-0.154841497540474 0.230424001812935 3.2260000705719 255 114 107
-0.146229147911072 0.230714961886406 3.23000025749207 255 110 106
-0.1374242156744 0.2307198792696 3.23000025749207 255 114 110
-0.128738209605217 0.230938792228699 3.23300004005432 255 110 106
-0.119701497256756 0.230514571070671 3.22700023651123 255 116 111
-0.110800124704838 0.230304300785065 3.2240002155304 255 110 106
-0.101819731295109 0.229879394173622 3.21800017356873 255 116 111
-0.0931608080863953 0.23016856610775 3.22200012207031 255 114 105
-0.0843749493360519 0.230171680450439 3.22200012207031 255 119 108
-0.0757295042276382 0.230603098869324 3.22800016403198 255 118 111
-0.0668851658701897 0.230462715029716 3.2260000705719 255 109 105
-0.0579254403710365 0.229821979999542 3.21700024604797 254 110 105
-0.522793412208557 0.220988124608994 3.22300004959106 236 113 138
-0.513418436050415 0.220728650689125 3.21900010108948 246 95 111
-0.504847526550293 0.220811858773232 3.22000026702881 255 91 104
-0.495961576700211 0.220757737755775 3.21900010108948 255 93 102
-0.486474066972733 0.220429092645645 3.21400022506714 255 97 104
-0.476417571306229 0.219825893640518 3.20500016212463 255 100 105
-0.467575907707214 0.219771206378937 3.20400023460388 255 96 97
-0.460313647985458 0.220470875501633 3.21400022506714 251 91 94
-0.45229309797287 0.220827430486679 3.21900010108948 255 98 101
-0.444106101989746 0.221115216612816 3.22300004959106 255 97 100
-0.434815376996994 0.220853984355927 3.21900010108948 255 102 102
-0.426074415445328 0.22086700797081 3.21900010108948 255 102 105
-0.416035532951355 0.220193609595299 3.20900011062622 255 111 111
-0.406811147928238 0.219931676983833 3.20500016212463 255 96 99
-0.397607177495956 0.219669505953789 3.20100021362305 255 96 99
-0.389638543128967 0.22009339928627 3.20700025558472 255 95 100
-0.381635904312134 0.220517113804817 3.21300005912781 255 105 110
-0.37325119972229 0.220734730362892 3.21600008010864 255 100 105
-0.364395529031754 0.220677584409714 3.21500015258789 255 98 98
-0.355101525783539 0.220345616340637 3.21000003814697 255 102 105
-0.346480876207352 0.220425307750702 3.2110002040863 255 104 102
-0.337958753108978 0.220573410391808 3.21300005912781 255 108 104
-0.329526960849762 0.220789924263954 3.21600008010864 255 107 105
-0.32037952542305 0.220525652170181 3.21200013160706 255 108 104
-0.311834782361984 0.220673054456711 3.21400022506714 255 108 104
-0.303183704614639 0.220751583576202 3.21500015258789 255 112 108
-0.294617682695389 0.220898509025574 3.21700024604797 255 106 100
-0.286128550767899 0.221113875508308 3.22000026702881 255 112 106
-0.277105182409287 0.220916986465454 3.21700024604797 255 115 111
-0.267680019140244 0.220376402139664 3.20900011062622 255 113 109
-0.258781582117081 0.220247611403465 3.20700025558472 255 112 108
-0.250049024820328 0.220255926251411 3.20700025558472 255 108 105
-0.241465970873833 0.22040131688118 3.20900011062622 255 109 109
-0.232436031103134 0.220134362578392 3.20500016212463 255 107 104
-0.223775923252106 0.220210552215576 3.20600008964539 254 105 102
-0.214640021324158 0.219805642962456 3.20000004768372 255 112 109
-0.20630818605423 0.220224738121033 3.20600008964539 255 107 104
-0.197511464357376 0.220162734389305 3.20500016212463 255 109 105
-0.189249560236931 0.220718741416931 3.21300005912781 255 112 108
-0.180662408471107 0.220930993556976 3.21600008010864 255 116 109
-0.171897858381271 0.220936864614487 3.21600008010864 255 118 110
-0.162929758429527 0.220667645335197 3.21200013160706 255 118 110
-0.154174774885178 0.220672935247421 3.21200013160706 255 113 106
-0.145871937274933 0.221365004777908 3.22200012207031 255 113 106
-0.137046009302139 0.221301078796387 3.22100019454956 255 115 111
-0.127946197986603 0.220755875110626 3.21300005912781 255 109 105
-0.118926607072353 0.220279052853584 3.20600008964539 255 116 111
-0.110047824680805 0.220008090138435 3.2020001411438 255 115 111
-0.101285338401794 0.219942942261696 3.20100021362305 255 114 107
-0.0927013754844666 0.220289781689644 3.20600008964539 255 112 104
-0.0839850381016731 0.220361486077309 3.20700025558472 255 113 102
-0.0753098055720329 0.220570296049118 3.21000003814697 255 113 106
-0.0664313361048698 0.220160439610481 3.20400023460388 255 119 114
-0.0576393343508244 0.219956398010254 3.20100021362305 255 172 169
-0.525403380393982 0.213276222348213 3.23900008201599 225 121 142
-0.514549314975739 0.212434470653534 3.2260000705719 238 110 128
-0.505175411701202 0.2121851593256 3.22200012207031 241 95 115
-0.495821624994278 0.211935684084892 3.21800017356873 237 84 100
-0.486033886671066 0.211488395929337 3.2110002040863 237 81 93
-0.475093394517899 0.210513919591904 3.19600009918213 252 100 106
-0.465692222118378 0.210197895765305 3.19100022315979 251 100 100
-0.457032799720764 0.210211023688316 3.19100022315979 255 103 103
-0.449917584657669 0.210948660969734 3.2020001411438 255 103 107
-0.441914439201355 0.211290895938873 3.20700025558472 255 103 107
-0.433477401733398 0.211435347795486 3.20900011062622 254 101 101
-0.424498707056046 0.211316034197807 3.20700025558472 255 110 110
-0.415529310703278 0.211196511983871 3.20500016212463 255 108 106
-0.406188696622849 0.210879072546959 3.20000004768372 254 94 95
-0.397494912147522 0.210890918970108 3.20000004768372 255 101 102
-0.389164298772812 0.211100280284882 3.20300006866455 255 99 104
-0.380222141742706 0.210979923605919 3.20100021362305 255 98 105
-0.370941370725632 0.210661590099335 3.19600009918213 255 97 102
-0.361686408519745 0.210342988371849 3.19100022315979 255 100 103
-0.352125555276871 0.209826409816742 3.18300008773804 255 102 105
-0.343685984611511 0.209968790411949 3.18500018119812 255 99 97
-0.335129141807556 0.210045009851456 3.18600010871887 253 96 94
-0.327692836523056 0.210846275091171 3.19800019264221 255 101 99
-0.318594038486481 0.210592433810234 3.19400024414063 255 109 105
-0.310195088386536 0.210799902677536 3.19700026512146 247 93 89
-0.30092990398407 0.210413694381714 3.19100022315979 255 102 98
-0.292520552873611 0.210620701313019 3.19400024414063 255 106 102
-0.284271478652954 0.210959374904633 3.19900012016296 255 107 103
-0.27521887421608 0.210704311728477 3.19500017166138 255 102 100
-0.265686541795731 0.210053250193596 3.18500018119812 255 108 108
-0.256772488355637 0.209863573312759 3.18200016021729 255 106 113
-0.248497575521469 0.210201263427734 3.18700003623962 253 102 102
-0.23996876180172 0.210340887308121 3.18900012969971 255 105 105
-0.231138035655022 0.210216388106346 3.18700003623962 255 109 106
-0.222387135028839 0.210157632827759 3.18600010871887 255 113 109
-0.213842064142227 0.210296496748924 3.18800020217896 255 112 108
-0.205349624156952 0.210501044988632 3.19100022315979 254 105 101
-0.196778371930122 0.210639402270317 3.19300007820129 255 108 101
-0.188136577606201 0.210711538791656 3.19400024414063 255 114 107
-0.179376214742661 0.210651412606239 3.19300007820129 255 112 105
-0.170727550983429 0.210723027586937 3.19400024414063 255 111 100
-0.161869823932648 0.210530430078506 3.19100022315979 255 121 110
-0.153459832072258 0.210931390523911 3.19700026512146 255 108 101
-0.145152345299721 0.21152999997139 3.20600008964539 255 112 105
-0.136369720101357 0.211468562483788 3.20500016212463 255 108 104
-0.127114146947861 0.210615068674088 3.19200015068054 255 113 109
-0.118077322840691 0.210025191307068 3.18300008773804 255 117 113
-0.109398439526558 0.210028886795044 3.18300008773804 255 112 108
-0.10078240185976 0.210164278745651 3.18500018119812 255 115 108
-0.0923285409808159 0.210695296525955 3.19300007820129 255 114 106
-0.0836735516786575 0.210830137133598 3.19500017166138 255 117 102
-0.0749369263648987 0.21076674759388 3.19400024414063 252 105 101
-0.0660810545086861 0.210307121276855 3.18700003623962 237 104 100
-0.466872721910477 0.20202074944973 3.19900012016296 255 139 150
-0.457475334405899 0.201717644929886 3.19400024414063 239 107 117
-0.449227720499039 0.201919570565224 3.19700026512146 249 108 109
-0.440962284803391 0.202121362090111 3.20000004768372 254 113 112
-0.432273954153061 0.202133491635323 3.20000004768372 251 108 107
-0.423187106847763 0.201955959200859 3.19700026512146 248 97 99
-0.414374351501465 0.201904520392418 3.19600009918213 245 94 96
-0.405565708875656 0.201852902770042 3.19500017166138 255 102 100
-0.396761149168015 0.201801121234894 3.19400024414063 251 90 95
-0.387353092432022 0.201433166861534 3.18800020217896 251 84 92
-0.377857565879822 0.201001808047295 3.18100023269653 255 96 103
-0.368166595697403 0.200443789362907 3.17200016975403 255 95 100
-0.359656780958176 0.200517490506172 3.17300009727478 255 94 99
-0.351140290498734 0.20059098303318 3.17400026321411 255 93 97
-0.342401266098022 0.200537875294685 3.17300009727478 255 99 100
-0.333982050418854 0.200674146413803 3.17500019073486 255 104 104
-0.325960665941238 0.201063066720963 3.18100023269653 255 99 100
-0.317705869674683 0.201325371861458 3.18500018119812 255 101 102
-0.308457940816879 0.200955331325531 3.17900013923645 255 98 101
-0.299241453409195 0.200585037469864 3.17300009727478 255 99 102
-0.290606111288071 0.200593784451485 3.17300009727478 255 103 108
-0.282680600881577 0.201108127832413 3.18100023269653 255 102 106
-0.273590564727783 0.200800314545631 3.17600011825562 255 100 107
-0.264526784420013 0.200492262840271 3.17100024223328 255 97 104
-0.255327820777893 0.200057476758957 3.16400003433228 255 101 105
-0.247023746371269 0.200317993760109 3.16800022125244 255 102 102
-0.238621681928635 0.200515061616898 3.17100024223328 255 113 113
-0.230057328939438 0.200585395097733 3.17200016975403 255 115 111
-0.22148659825325 0.200655490159988 3.17300009727478 255 115 111
-0.213110819458961 0.200915068387985 3.17700004577637 255 117 113
-0.204905539751053 0.201364174485207 3.18400025367737 255 114 110
-0.196168214082718 0.201307058334351 3.18300008773804 255 113 106
-0.187258884310722 0.201059982180595 3.17900013923645 255 112 108
-0.178370639681816 0.200812608003616 3.17500019073486 255 112 105
-0.169610366225243 0.20069146156311 3.17300009727478 255 108 100
-0.160809636116028 0.200506821274757 3.17000007629395 255 111 103
-0.152408629655838 0.200827956199646 3.17500019073486 254 104 98
-0.144160851836205 0.201401814818382 3.18400025367737 255 110 104
-0.135650679469109 0.201659172773361 3.18800020217896 254 104 100
-0.126560643315315 0.201030686497688 3.1780002117157 255 107 103
-0.117747202515602 0.200781479477882 3.17400026321411 255 113 109
-0.109023846685886 0.200658470392227 3.17200016975403 255 113 109
-0.100342601537704 0.200598508119583 3.17100024223328 255 114 107
-0.0918399021029472 0.200917795300484 3.17600011825562 255 111 104
-0.0832048058509827 0.20098377764225 3.17700004577637 255 111 104
-0.0744935423135757 0.200859755277634 3.17500019073486 244 104 99
-0.432555943727493 0.193544834852219 3.2020001411438 245 138 152
-0.423331081867218 0.193314507603645 3.19800019264221 255 132 148
-0.414774775505066 0.193386256694794 3.19900012016296 255 126 135
-0.405957758426666 0.193336889147758 3.19800019264221 255 124 123
-0.39677220582962 0.193105980753899 3.19400024414063 255 114 111
-0.387242406606674 0.192693442106247 3.18700003623962 255 102 112
-0.377393007278442 0.192099303007126 3.17700004577637 252 96 108
-0.367828756570816 0.191625833511353 3.16900014877319 255 102 110
-0.358420103788376 0.191212579607964 3.16200017929077 255 98 106
-0.349712044000626 0.191161945462227 3.16100025177002 255 99 106
-0.340900272130966 0.191050633788109 3.15900015830994 255 101 105
-0.332308530807495 0.191060036420822 3.15900015830994 255 110 114
-0.324022978544235 0.191250711679459 3.16200017929077 255 101 104
-0.315520435571671 0.191320210695267 3.16300010681152 251 93 96
-0.306526213884354 0.191087082028389 3.15900015830994 251 90 95
-0.297741144895554 0.190974667668343 3.15700006484985 255 99 104
-0.288874357938766 0.190801545977592 3.15400004386902 255 103 108
-0.280733734369278 0.191112160682678 3.15900015830994 255 95 102
-0.271875709295273 0.190938606858253 3.1560001373291 255 100 107
-0.263116359710693 0.190825283527374 3.15400004386902 255 94 99
-0.25420555472374 0.190590754151344 3.15000009536743 255 97 100
-0.245783448219299 0.19071900844574 3.15200018882751 255 107 107
-0.237424701452255 0.190907523036003 3.15500020980835 255 100 98
-0.22875864803791 0.19085381925106 3.15400004386902 255 107 105
-0.220376327633858 0.191041901707649 3.15700006484985 253 100 98
-0.211574360728264 0.190866678953171 3.15400004386902 255 108 106
-0.203238427639008 0.191114827990532 3.15800023078918 255 111 109
-0.194571703672409 0.191060155630112 3.15700006484985 255 108 104
-0.185909688472748 0.191005229949951 3.1560001373291 255 104 100
-0.177196189761162 0.190889537334442 3.15400004386902 255 108 104
-0.168653309345245 0.190955191850662 3.15500020980835 255 105 101
-0.160002812743187 0.190899521112442 3.15400004386902 255 105 99
-0.151693180203438 0.191267311573029 3.16000008583069 255 109 103
-0.143214389681816 0.191453278064728 3.16300010681152 255 111 105
-0.134761229157448 0.191699534654617 3.16700005531311 255 108 102
-0.125887468457222 0.191340237855911 3.16100025177002 255 111 107
-0.117231406271458 0.191283330321312 3.16000008583069 255 110 106
-0.108649082481861 0.191347241401672 3.16100025177002 255 110 106
-0.0999342799186707 0.191168770194054 3.15800023078918 255 114 110
-0.0912643596529961 0.191050559282303 3.1560001373291 255 111 107
-0.0826573669910431 0.191053166985512 3.1560001373291 255 121 116
-0.350606679916382 0.183015778660774 3.16900014877319 240 135 151
-0.341341227293015 0.182678490877151 3.16300010681152 243 129 133
-0.332843571901321 0.182745262980461 3.16400003433228 235 105 107
-0.32351952791214 0.182349801063538 3.15700006484985 249 99 109
-0.314830869436264 0.182300642132759 3.1560001373291 252 101 107
-0.305661380290985 0.181962460279465 3.15000009536743 251 100 102
-0.296900629997253 0.181855127215385 3.14800024032593 253 98 106
-0.287874937057495 0.181574255228043 3.14300012588501 255 101 109
-0.279497444629669 0.181697562336922 3.14500021934509 255 107 115
-0.27084955573082 0.181647345423698 3.14400005340576 255 97 104
-0.262372970581055 0.181712463498116 3.14500021934509 255 95 100
-0.253405749797821 0.181430697441101 3.14000010490417 255 100 101
-0.244932621717453 0.181495368480682 3.14100003242493 255 100 101
-0.236528396606445 0.181617617607117 3.14300012588501 250 91 89
-0.228112369775772 0.181739658117294 3.14500021934509 255 100 98
-0.220033600926399 0.182150438427925 3.15200018882751 255 98 98
-0.210976660251617 0.181751936674118 3.14500021934509 255 105 103
-0.202600672841072 0.181931123137474 3.14800024032593 247 94 92
-0.193529516458511 0.181474328041077 3.14000010490417 253 101 97
-0.185443788766861 0.181942045688629 3.14800024032593 255 106 102
-0.176751866936684 0.181831568479538 3.14600014686584 253 101 97
-0.168070137500763 0.181720837950706 3.14400005340576 255 106 100
-0.159347951412201 0.181552082300186 3.14100003242493 255 107 101
-0.150689482688904 0.181440889835358 3.13900017738342 255 108 100
-0.142358258366585 0.181734055280685 3.14400005340576 255 114 106
-0.133914098143578 0.181911394000053 3.1470000743866 255 107 99
-0.125413224101067 0.182030722498894 3.14900016784668 255 107 103
-0.116938054561615 0.182207614183426 3.15200018882751 255 113 109
-0.10823979973793 0.182037398219109 3.14900016784668 255 114 110
-0.0994941666722298 0.181751325726509 3.14400005340576 255 111 107
-0.0906308218836784 0.181175947189331 3.1340000629425 255 113 108
-0.0821621492505074 0.181351870298386 3.13700008392334 254 119 107
-0.315737038850784 0.174199149012566 3.16500020027161 225 133 135
-0.306348770856857 0.173766881227493 3.15700006484985 251 126 140
-0.297568768262863 0.173664644360542 3.15500020980835 242 107 123
-0.288340598344803 0.173286944627762 3.14800024032593 247 98 114
-0.279416054487228 0.173074170947075 3.14400005340576 241 88 104
-0.270426094532013 0.17280612885952 3.13900017738342 247 92 102
-0.261629223823547 0.172647967934608 3.13600015640259 254 99 107
-0.253170490264893 0.172709807753563 3.13700008392334 255 104 102
-0.244237452745438 0.172441110014915 3.132000207901 252 100 96
-0.235857486724854 0.172557562589645 3.1340000629425 255 97 100
-0.227248191833496 0.172508671879768 3.13300013542175 252 90 93
-0.218992471694946 0.17273485660553 3.13700008392334 255 102 105
-0.209909081459045 0.172300085425377 3.12900018692017 255 109 109
-0.201383367180824 0.172305583953857 3.12900018692017 254 99 99
-0.192548677325249 0.172035530209541 3.12400007247925 255 103 99
-0.184506326913834 0.172481164336205 3.132000207901 255 108 104
-0.175857797265053 0.17237588763237 3.13000011444092 255 107 103
-0.167272910475731 0.172325432300568 3.12900018692017 255 106 102
-0.158540636301041 0.172109559178352 3.12500023841858 255 107 101
-0.150021567940712 0.172113746404648 3.12500023841858 255 117 111
-0.141592428088188 0.172227844595909 3.12700009346008 255 107 101
-0.133151859045029 0.172341734170914 3.12900018692017 255 112 106
-0.12466000020504 0.172400325536728 3.13000011444092 255 115 111
-0.116162195801735 0.172458693385124 3.13100004196167 254 101 99
-0.107452228665352 0.172186359763145 3.12600016593933 255 112 110
-0.0989273190498352 0.17218916118145 3.12600016593933 255 111 106
-0.0902863442897797 0.171971440315247 3.12200021743774 253 112 109
-0.271553009748459 0.164933368563652 3.15200018882751 255 128 144
-0.262637078762054 0.164730712771416 3.14800024032593 255 125 140
-0.25406476855278 0.164737209677696 3.14800024032593 255 125 131
-0.245023608207703 0.164429515600204 3.14200019836426 255 128 124
-0.236239925026894 0.164278581738472 3.13900017738342 253 113 108
-0.227616772055626 0.16423211991787 3.13800024986267 255 105 109
-0.219067990779877 0.164237797260284 3.13800024986267 255 106 103
-0.209981650114059 0.163824528455734 3.13000011444092 255 115 106
-0.201066836714745 0.163515731692314 3.12400007247925 255 115 107
-0.192368805408478 0.163363724946976 3.12100005149841 252 101 101
-0.184157699346542 0.163630276918411 3.12600016593933 255 108 108
-0.175469130277634 0.163477852940559 3.1230001449585 255 104 102
-0.166635811328888 0.163168177008629 3.11700010299683 255 102 98
-0.157733082771301 0.162753567099571 3.10900020599365 254 100 94
-0.149161398410797 0.162652835249901 3.10700011253357 255 107 101
