0.446086913347244 0.17685854434967 3.33800005912781 240 84 68
0.454742163419724 0.176689222455025 3.33500027656555 232 74 58
0.463379561901093 0.176519766449928 3.33200025558472 234 75 62
0.472424626350403 0.176509097218513 3.33200025558472 238 79 66
0.481323599815369 0.176445305347443 3.33100008964539 230 73 63
0.490657329559326 0.176540285348892 3.33300018310547 227 75 69
0.500150322914124 0.176688089966774 3.3360002040863 211 61 57
0.377906829118729 0.165774568915367 3.29700016975403 194 70 64
0.387456268072128 0.166017293930054 3.30200004577637 226 86 79
0.396791517734528 0.166159301996231 3.3050000667572 231 75 68
0.406018942594528 0.166250854730606 3.30700016021729 236 74 67
0.415255844593048 0.166342213749886 3.30900025367737 235 72 63
0.42501500248909 0.16663447022438 3.31500005722046 242 81 70
0.434412628412247 0.166775777935982 3.31800007820129 238 77 66
0.444092392921448 0.167017444968224 3.32300019264221 233 73 57
0.452843338251114 0.166907086968422 3.32100009918213 235 75 59
0.461442887783051 0.166746363043785 3.31800007820129 230 70 54
0.470450103282928 0.166736274957657 3.31800007820129 237 77 61
0.479311227798462 0.166675791144371 3.31700015068054 237 77 61
0.488312661647797 0.16666541993618 3.31700015068054 236 74 61
0.497912257909775 0.166855871677399 3.32100009918213 237 75 64
0.506463587284088 0.166694521903992 3.31800007820129 241 79 72
0.514997005462646 0.166533038020134 3.31500005722046 236 78 72
0.522880434989929 0.16617052257061 3.30800008773804 216 72 67
0.531528234481812 0.166059091687202 3.30600023269653 255 171 166
0.35943940281868 0.15657314658165 3.29200005531311 145 62 53
0.367384225130081 0.156137257814407 3.28300023078918 202 84 77
0.377227395772934 0.156509697437286 3.29100012779236 225 71 65
0.38629138469696 0.156549081206322 3.29200005531311 232 70 63
0.395599573850632 0.156683385372162 3.29500007629395 235 72 63
0.40443167090416 0.156627357006073 3.29400014877319 235 72 63
0.413382411003113 0.156618699431419 3.29400014877319 231 68 59
0.422844618558884 0.156800076365471 3.29800009727478 228 66 55
0.432196170091629 0.15693373978138 3.30100011825562 237 75 62
0.441295295953751 0.156972169876099 3.30200004577637 233 71 58
0.450398504734039 0.157010465860367 3.3030002117157 236 75 59
0.458949327468872 0.156858488917351 3.30000019073486 232 71 55
0.467765986919403 0.15680143237114 3.29900026321411 237 76 60
0.477153688669205 0.15693436563015 3.30200004577637 234 72 59
0.486703455448151 0.157114684581757 3.30600023269653 240 78 65
0.495823502540588 0.157152265310287 3.30700016021729 236 74 63
0.503879010677338 0.156857132911682 3.30100011825562 238 75 66
0.512366533279419 0.156704425811768 3.29800009727478 235 72 65
0.521310329437256 0.156694158911705 3.29800009727478 233 69 64
0.530895829200745 0.15687383711338 3.30200004577637 235 71 68
0.540010869503021 0.156910836696625 3.3030002117157 203 58 55
0.342576444149017 0.148068621754646 3.30200004577637 194 78 72
0.350600093603134 0.147657930850983 3.29300022125244 218 78 73
0.358901053667068 0.147381618618965 3.28700017929077 227 71 65
0.366832375526428 0.146970674395561 3.27800011634827 234 74 67
0.376432925462723 0.14723214507103 3.28400015830994 235 69 63
0.38512596487999 0.147134765982628 3.28200006484985 231 63 57
0.3936867415905 0.146992415189743 3.27900004386902 232 67 58
0.401984393596649 0.146760314702988 3.27400016784668 235 70 61
0.411006450653076 0.146797001361847 3.27500009536743 240 77 68
0.420417129993439 0.14696803689003 3.27900004386902 239 76 67
0.430371940135956 0.147318184375763 3.28700017929077 230 68 57
0.439566850662231 0.147399246692657 3.28900027275085 228 66 53
0.449043929576874 0.147569790482521 3.29300022125244 240 78 65
0.45701140165329 0.147247284650803 3.28600025177002 241 77 64
0.465790152549744 0.147193521261215 3.28500008583069 239 75 62
0.474851042032242 0.147229254245758 3.28600025177002 238 73 63
0.484799116849899 0.147533684968948 3.29300022125244 240 75 65
0.493584245443344 0.147479549050331 3.29200005531311 232 67 57
0.501446425914764 0.147156521677971 3.28500008583069 241 74 64
0.50957989692688 0.146923020482063 3.28000020980835 237 70 61
0.518317043781281 0.146868601441383 3.27900004386902 244 72 64
0.528011858463287 0.147082805633545 3.28400015830994 241 67 61
0.537241756916046 0.147162511944771 3.28600025177002 239 69 64
0.545649826526642 0.147018224000931 3.28300023078918 244 78 73
0.553702294826508 0.146784275770187 3.27800011634827 224 63 60
0.562412559986115 0.146729379892349 3.27700018882751 220 70 72
0.320781707763672 0.137442871928215 3.26300024986267 163 77 71
0.330569177865982 0.137815594673157 3.2720000743866 219 76 73
0.340093314647675 0.138061806559563 3.27800011634827 220 68 64
0.34890353679657 0.138013005256653 3.27700018882751 231 73 67
0.357597857713699 0.137921959161758 3.27500009536743 237 75 66
0.366391986608505 0.137872904539108 3.27400016784668 237 75 66
0.375523328781128 0.137950032949448 3.27600026130676 235 72 65
0.383960038423538 0.137774363160133 3.2720000743866 232 66 60
0.39273390173912 0.13772489130497 3.27100014686584 234 68 62
0.400764346122742 0.137422695755959 3.26400017738342 241 75 69
0.410135835409164 0.137583464384079 3.26800012588501 230 67 58
0.419014871120453 0.137575730681419 3.26800012588501 238 76 65
0.428285241127014 0.137694135308266 3.27100014686584 239 77 64
0.437570422887802 0.1378123909235 3.27400016784668 231 69 56
0.446597874164581 0.1378463357687 3.27500009536743 237 73 60
0.455072849988937 0.13771179318428 3.2720000743866 238 74 61
0.463672012090683 0.137619242072105 3.27000021934509 227 63 50
0.47298127412796 0.137736991047859 3.27300024032593 234 69 59
0.48259973526001 0.137938767671585 3.27800011634827 238 71 61
0.490894466638565 0.137761726975441 3.27400016784668 240 73 63
0.499471187591553 0.13766872882843 3.2720000743866 238 71 61
0.508190989494324 0.137617737054825 3.27100014686584 238 69 60
0.517536103725433 0.137734904885292 3.27400016784668 242 70 62
0.526252746582031 0.137683689594269 3.27300024032593 243 71 65
0.535125911235809 0.137674450874329 3.27300024032593 245 75 69
0.543332636356354 0.137496873736382 3.26900005340576 243 75 69
0.552191853523254 0.137487456202507 3.26900005340576 238 72 67
0.560706198215485 0.137393832206726 3.26700019836426 237 73 70
0.569382429122925 0.137342199683189 3.26600027084351 229 65 62
0.577520549297333 0.13716433942318 3.26200008392334 198 64 65
0.302284449338913 0.128248050808907 3.25500011444092 174 62 56
0.310665458440781 0.128045409917831 3.25000023841858 228 76 72
0.3196080327034 0.128079026937485 3.25100016593933 233 72 69
0.329059988260269 0.128309488296509 3.257000207901 237 74 67
0.338232129812241 0.12842158973217 3.26000022888184 232 69 60
0.346674114465714 0.128257796168327 3.25600004196167 232 67 57
0.355311512947083 0.128172695636749 3.25400018692017 237 75 64
0.364384382963181 0.128244996070862 3.25600004196167 234 72 61
0.373810738325119 0.12843531370163 3.26100015640259 236 71 62
0.38232421875 0.128310412168503 3.25800013542175 235 70 61
0.390820026397705 0.128185406327248 3.25500011444092 232 67 58
0.399052679538727 0.127981513738632 3.25000023841858 231 65 59
0.408260762691498 0.128092557191849 3.25300025939941 235 72 63
0.417099148035049 0.12808533012867 3.25300025939941 238 76 65
0.426590770483017 0.128274828195572 3.25800013542175 237 75 62
0.435707211494446 0.128346100449562 3.26000022888184 238 74 59
0.444560259580612 0.128338500857353 3.26000022888184 235 71 56
0.452855557203293 0.128173321485519 3.25600004196167 240 71 59
0.46212038397789 0.128283590078354 3.2590000629425 241 72 60
0.470966368913651 0.128275662660599 3.2590000629425 240 71 62
0.480105340480804 0.128346353769302 3.26100015640259 240 71 62
0.488204002380371 0.128141418099403 3.25600004196167 242 73 63
0.497495293617249 0.128251239657402 3.2590000629425 242 73 64
0.506024599075317 0.12816421687603 3.257000207901 241 69 61
0.515173733234406 0.128234475851059 3.2590000629425 239 67 61
0.52320659160614 0.128029212355614 3.25400018692017 241 69 63
0.53235536813736 0.128099292516708 3.25600004196167 247 75 67
0.540349960327148 0.127893894910812 3.25100016593933 241 70 60
0.54949826002121 0.127963796257973 3.25300025939941 241 69 61
0.556939542293549 0.127640277147293 3.24500012397766 246 70 64
0.565904974937439 0.127670675516129 3.24600005149841 241 63 58
0.573811888694763 0.127465024590492 3.24100017547607 244 67 65
0.583307981491089 0.12761327624321 3.24500012397766 247 74 72
0.592459321022034 0.127682790160179 3.24700021743774 222 77 74
0.283344328403473 0.118874132633209 3.24100017547607 152 62 56
0.291626662015915 0.11864909529686 3.2350001335144 218 80 76
0.300896793603897 0.118827387690544 3.24000024795532 227 77 73
0.309619456529617 0.118785470724106 3.23900008201599 232 68 63
0.319122076034546 0.119036816060543 3.24600005149841 234 71 64
0.32795438170433 0.119031302630901 3.24600005149841 232 70 59
0.336889296770096 0.119062341749668 3.24700021743774 236 74 63
0.344870120286942 0.118763238191605 3.23900008201599 236 74 61
0.353352189064026 0.118647366762161 3.23600006103516 231 66 56
0.362376272678375 0.118714705109596 3.23800015449524 234 69 59
0.371868461370468 0.118928529322147 3.24400019645691 236 71 62
0.380687862634659 0.118922278285027 3.24400019645691 240 73 64
0.389385908842087 0.118879243731499 3.24300026893616 236 69 60
0.397831588983536 0.118762791156769 3.24000024795532 237 69 63
0.406761676073074 0.118792854249477 3.24100017547607 237 72 63
0.415182858705521 0.11867618560791 3.23800015449524 236 71 62
0.424371987581253 0.118779309093952 3.24100017547607 237 72 62
0.433308631181717 0.118809007108212 3.24200010299683 245 80 61
0.441567540168762 0.118655391037464 3.23800015449524 241 76 59
0.450081378221512 0.11857496201992 3.23600006103516 237 69 54
0.459291964769363 0.118677645921707 3.23900008201599 245 76 64
0.468083798885345 0.118670299649239 3.23900008201599 241 72 62
0.477021366357803 0.118699498474598 3.24000024795532 239 70 60
0.485363036394119 0.118582040071487 3.23700022697449 246 75 65
0.494908213615417 0.118757583200932 3.24200010299683 239 68 58
0.50354677438736 0.118713214993477 3.24100017547607 238 67 57
0.512652635574341 0.118778645992279 3.24300026893616 246 74 66
0.520481467247009 0.11855099350214 3.23700022697449 245 73 67
0.530238211154938 0.118762739002705 3.24300026893616 245 73 65
0.538363814353943 0.118608184158802 3.23900008201599 242 71 61
0.546972930431366 0.118563428521156 3.23800015449524 253 80 70
0.554373621940613 0.11826229095459 3.23000025749207 246 70 62
0.563124179840088 0.118254013359547 3.23000025749207 247 70 62
0.571519017219543 0.118172444403172 3.22800016403198 245 67 62
0.580620467662811 0.118237257003784 3.23000025749207 247 70 66
0.589731216430664 0.118301972746849 3.23200011253357 241 75 72
0.597740054130554 0.118147008121014 3.22800016403198 243 80 77
0.606477320194244 0.118138410151005 3.22800016403198 199 70 70
0.264879494905472 0.109709829092026 3.23100018501282 213 73 66
0.273338824510574 0.109569683670998 3.22700023651123 224 74 68
0.281950235366821 0.109497308731079 3.22500014305115 234 81 73
0.290549725294113 0.109424829483032 3.22300004959106 233 70 63
0.299508690834045 0.109488040208817 3.22500014305115 228 65 60
0.308477461338043 0.109551109373569 3.22700023651123 236 70 64
0.317652642726898 0.109681941568851 3.23100018501282 237 74 65
0.326444238424301 0.109676845371723 3.23100018501282 235 73 62
0.335234701633453 0.109671659767628 3.23100018501282 237 75 62
0.343278616666794 0.109428733587265 3.2240002155304 230 68 55
0.35150158405304 0.109253615140915 3.21900010108948 237 72 62
0.360255718231201 0.109248071908951 3.21900010108948 237 72 62
0.369696378707886 0.109446063637733 3.22500014305115 237 70 60
0.378933668136597 0.109576031565666 3.22900009155273 241 74 65
0.387350887060165 0.109468348324299 3.2260000705719 236 69 60
0.39587327837944 0.109394520521164 3.2240002155304 240 73 64
0.404383420944214 0.109320558607578 3.22200012207031 239 72 63
0.413009583950043 0.109280452132225 3.22100019454956 231 66 57
0.422283560037613 0.109409861266613 3.22500014305115 240 73 63
0.430642277002335 0.109301686286926 3.22200012207031 239 73 60
0.439256012439728 0.10926128923893 3.22100019454956 240 74 59
0.447584748268127 0.109152942895889 3.21800017356873 234 65 53
0.456888347864151 0.109281927347183 3.22200012207031 246 77 67
0.465489625930786 0.109241247177124 3.22100019454956 237 67 61
0.474525600671768 0.109302207827568 3.22300004959106 242 73 63
0.482671350240707 0.109159611165524 3.21900010108948 242 71 61
0.491709768772125 0.109220393002033 3.22100019454956 244 73 63
0.499669969081879 0.1090437322855 3.21600008010864 241 70 60
0.508392035961151 0.109036549925804 3.21600008010864 245 73 65
0.517273247241974 0.109063178300858 3.21700024604797 240 68 62
0.527302861213684 0.109327025711536 3.22500014305115 249 77 69
0.535878419876099 0.109285682439804 3.2240002155304 241 70 60
0.543940186500549 0.10914258658886 3.22000026702881 253 77 68
0.551978647708893 0.10899942368269 3.21600008010864 247 71 62
0.561040043830872 0.109059564769268 3.21800017356873 248 73 61
0.569579482078552 0.109017983078957 3.21700024604797 247 71 62
0.578651189804077 0.109077975153923 3.21900010108948 247 71 63
0.587184846401215 0.109036259353161 3.21800017356873 242 68 62
0.594785511493683 0.108825072646141 3.21200013160706 248 78 73
0.602727949619293 0.108681626617908 3.20800018310547 242 73 72
0.611409485340118 0.108673647046089 3.20800018310547 221 54 55
0.620862662792206 0.108801119029522 3.21200013160706 167 84 80
0.245217546820641 0.100066758692265 3.20400023460388 175 55 46
0.254261314868927 0.100187964737415 3.20800018310547 220 81 72
0.263079971075058 0.100215345621109 3.20900011062622 229 78 60
0.271564245223999 0.100117698311806 3.20600008964539 233 74 61
0.280555695295334 0.100207306444645 3.20900011062622 232 71 58
0.289562523365021 0.100296787917614 3.21200013160706 234 69 59
0.298491686582565 0.100354917347431 3.21400022506714 238 76 65
0.306952685117722 0.100256823003292 3.2110002040863 235 74 61
0.315986096858978 0.100345939397812 3.21400022506714 237 79 63
0.324630528688431 0.100310064852238 3.21300005912781 234 73 57
0.333475857973099 0.100336521863937 3.21400022506714 235 74 57
0.341899573802948 0.100238010287285 3.2110002040863 240 82 66
0.35019651055336 0.100108169019222 3.20700025558472 235 75 59
0.358694225549698 0.100040659308434 3.20500016212463 230 68 57
0.36798232793808 0.100191548466682 3.21000003814697 235 63 55
0.377413660287857 0.100373528897762 3.21600008010864 241 72 63
0.386035770177841 0.10033692419529 3.21500015258789 242 74 68
0.394160002470016 0.100175403058529 3.21000003814697 236 66 60
0.403008699417114 0.100201018154621 3.2110002040863 232 62 57
0.411348581314087 0.100101731717587 3.20800018310547 239 69 64
0.420456409454346 0.100189566612244 3.2110002040863 242 69 65
0.428509920835495 0.100027710199356 3.20600008964539 242 70 64
0.437353074550629 0.100052960216999 3.20700025558472 237 68 58
0.445087432861328 0.0998285412788391 3.20000004768372 247 76 66
0.454342365264893 0.0999472215771675 3.20400023460388 241 70 60
0.462750285863876 0.0998786315321922 3.2020001411438 244 72 64
0.47232374548912 0.100059486925602 3.20800018310547 242 70 64
0.480428904294968 0.0999283641576767 3.20400023460388 244 70 64
0.489274084568024 0.0999531000852585 3.20500016212463 244 72 64
0.497035562992096 0.099759466946125 3.19900012016296 237 65 59
0.505711555480957 0.0997528806328774 3.19900012016296 249 77 71
0.514868319034576 0.0998397544026375 3.2020001411438 252 78 72
0.524530410766602 0.100020095705986 3.20800018310547 245 71 65
0.533724784851074 0.100106798112392 3.2110002040863 247 71 63
0.542258083820343 0.100068725645542 3.21000003814697 247 71 62
0.550956130027771 0.100061759352684 3.21000003814697 251 76 64
0.558780908584595 0.0998988971114159 3.20500016212463 250 75 61
0.567285239696503 0.099860668182373 3.20400023460388 253 78 64
0.575782477855682 0.0998223647475243 3.20300006866455 250 74 65
0.585002660751343 0.099908672273159 3.20600008964539 248 72 63
0.592015445232391 0.0996209904551506 3.19700026512146 249 73 65
0.599729418754578 0.0994579195976257 3.19200015068054 254 74 70
0.60779595375061 0.0993571355938911 3.18900012969971 252 69 68
0.617777645587921 0.0995678678154945 3.19600009918213 248 67 67
0.626619637012482 0.0995916053652763 3.19700026512146 235 56 56
0.636458933353424 0.0997710451483727 3.20300006866455 222 54 58
0.227480202913284 0.0912243202328682 3.20000004768372 149 62 52
0.235828965902328 0.0910786166787148 3.19500017166138 201 82 71
0.24437914788723 0.0910183265805244 3.19300007820129 227 79 67
0.253076046705246 0.0910149440169334 3.19300007820129 233 83 69
0.261526018381119 0.090925931930542 3.19000005722046 235 78 58
0.270128101110458 0.0908938348293304 3.18900012969971 229 68 52
0.278898537158966 0.090918630361557 3.19000005722046 236 74 63
0.288034021854401 0.0910573229193687 3.19500017166138 232 70 57
0.296359777450562 0.0909394025802612 3.19100022315979 233 73 57
0.304949432611465 0.0909068882465363 3.19000005722046 235 78 68
0.313434243202209 0.0908457636833191 3.18800020217896 232 75 65
0.322412252426147 0.0909270495176315 3.19100022315979 235 81 65
0.330990225076675 0.0908942148089409 3.19000005722046 233 78 60
0.339668184518814 0.0908898040652275 3.19000005722046 230 80 58
0.348344892263412 0.0908852890133858 3.19000005722046 233 80 62
0.357132285833359 0.0909091681241989 3.19100022315979 235 67 61
0.366038471460342 0.0909614339470863 3.19300007820129 241 73 68
0.374836951494217 0.0909851267933846 3.19400024414063 236 68 63
0.383279293775558 0.0909232571721077 3.19200015068054 239 72 63
0.392200589179993 0.0909752398729324 3.19400024414063 241 72 63
0.401257008314133 0.091055616736412 3.19700026512146 240 70 64
0.409687072038651 0.0909934788942337 3.19500017166138 240 67 63
0.417712181806564 0.0908458456397057 3.19000005722046 245 70 66
0.426109671592712 0.090783566236496 3.18800020217896 233 59 53
0.434767633676529 0.0907781645655632 3.18800020217896 242 69 59
0.443424224853516 0.0907726883888245 3.18800020217896 246 72 64
0.45193749666214 0.0907386466860771 3.18700003623962 246 72 64
0.460732966661453 0.0907614901661873 3.18800020217896 242 68 60
0.469679594039917 0.0908126980066299 3.19000005722046 242 68 60
0.478485673666 0.0908353701233864 3.19100022315979 243 69 63
0.486990302801132 0.0908010378479958 3.19000005722046 252 78 70
0.495021969079971 0.0906812623143196 3.18600010871887 240 66 60
0.503346562385559 0.0906183496117592 3.18400025367737 246 71 67
0.51262354850769 0.0907261222600937 3.18800020217896 248 71 67
0.521757245063782 0.090805359184742 3.19100022315979 243 67 61
0.530739307403564 0.090856060385704 3.19300007820129 244 68 62
0.538886189460754 0.0907644405961037 3.19000005722046 243 67 58
0.547529995441437 0.0907581225037575 3.19000005722046 247 72 60
0.555474996566772 0.0906379520893097 3.18600010871887 245 70 56
0.56428200006485 0.0906599685549736 3.18700003623962 246 71 57
0.57255357503891 0.0905966088175774 3.18500018119812 252 76 67
0.581542551517487 0.0906469598412514 3.18700003623962 247 71 62
0.589615046977997 0.0905550718307495 3.18400025367737 253 77 69
0.598045408725739 0.0905200093984604 3.18300008773804 245 67 63
0.605706393718719 0.090371161699295 3.1780002117157 254 71 70
0.615078508853912 0.090478204190731 3.18200016021729 254 71 70
0.623686671257019 0.0904714688658714 3.18200016021729 250 69 68
0.633088052272797 0.0905784070491791 3.18600010871887 250 72 72
0.641502439975739 0.0905431434512138 3.18500018119812 248 76 78
0.650318145751953 0.0905647054314613 3.18600010871887 216 77 78
0.199499875307083 0.0817596912384033 3.17100024223328 168 79 67
0.208535090088844 0.0819118320941925 3.17700004577637 206 85 74
0.217602238059044 0.0820638760924339 3.18300008773804 207 80 61
0.226345777511597 0.082086905837059 3.18400025367737 204 102 54
0.234872445464134 0.0820324718952179 3.18200016021729 198 108 49
0.243616968393326 0.0820553004741669 3.18300008773804 185 95 36
0.252286702394485 0.0820522382855415 3.18300008773804 194 104 53
0.329230517148972 0.0817627608776093 3.17300009727478 255 226 111
0.337755799293518 0.0817330107092857 3.17200016975403 255 228 112
0.34660205245018 0.0817804932594299 3.17400026321411 255 244 132
0.355569809675217 0.0818536207079887 3.17700004577637 225 75 51
0.364208787679672 0.0818493813276291 3.17700004577637 239 78 62
0.372494399547577 0.081767775118351 3.17400026321411 237 73 60
0.381122618913651 0.0817633718252182 3.17400026321411 239 73 60
0.390363484621048 0.0818876773118973 3.17900013923645 238 69 59
0.399504661560059 0.0819861367344856 3.18300008773804 242 73 64
0.407640397548676 0.0818784534931183 3.17900013923645 238 66 60
0.415622115135193 0.0817449614405632 3.17400026321411 242 67 63
0.42424350976944 0.0817401707172394 3.17400026321411 235 61 55
0.433409035205841 0.0818382948637009 3.1780002117157 242 66 60
0.441760271787643 0.0817818492650986 3.17600011825562 248 72 64
0.450099349021912 0.0817253366112709 3.17400026321411 244 71 61
0.459004104137421 0.0817717462778091 3.17600011825562 243 70 60
0.46835994720459 0.0818953141570091 3.18100023269653 241 70 60
0.476841747760773 0.0818643495440483 3.1800000667572 244 71 61
0.484705984592438 0.081730343401432 3.17500019073486 249 76 66
0.493007749319077 0.0816735103726387 3.17300009727478 243 68 64
0.502087652683258 0.0817453265190125 3.17600011825562 249 72 70
0.511342942714691 0.081842802464962 3.1800000667572 243 66 64
0.519964456558228 0.0818372592329979 3.1800000667572 242 62 67
0.528252005577087 0.0817802101373672 3.1780002117157 251 72 71
0.536020278930664 0.0816458985209465 3.17300009727478 247 71 57
0.543931603431702 0.0815372988581657 3.16900014877319 251 76 62
0.551994144916534 0.0814543813467026 3.16600012779236 245 70 58
0.561101138591766 0.0815257802605629 3.16900014877319 253 78 66
0.569683492183685 0.0815199390053749 3.16900014877319 253 77 68
0.578446805477142 0.0815397873520851 3.17000007629395 255 83 75
0.586658358573914 0.0814824253320694 3.16800022125244 250 73 71
0.595045566558838 0.0814507380127907 3.16700005531311 253 76 72
0.603044450283051 0.081367589533329 3.16400003433228 250 73 69
0.61160546541214 0.0813615545630455 3.16400003433228 255 80 76
0.620752990245819 0.0814326256513596 3.16700005531311 251 73 69
0.629120290279388 0.0814007967710495 3.16600012779236 255 87 85
0.637883484363556 0.081420361995697 3.16700005531311 255 79 77
0.646446466445923 0.0814141854643822 3.16700005531311 255 77 77
0.657283008098602 0.0816907435655594 3.1780002117157 254 78 80
0.667967796325684 0.0819415152072906 3.18800020217896 236 65 71
0.679129600524902 0.0822436287999153 3.20000004768372 215 74 71
0.198747232556343 0.0728359818458557 3.15900015830994 221 80 69
0.207552999258041 0.0729028806090355 3.16200017929077 228 84 69
0.216442614793777 0.072992742061615 3.16600012779236 229 93 70
0.224926635622978 0.0729441717267036 3.16400003433228 255 242 119
0.233620390295982 0.0729646906256676 3.16500020027161 255 237 89
0.242242142558098 0.0729620531201363 3.16500020027161 255 239 83
0.251179963350296 0.0730515420436859 3.16900014877319 255 240 88
0.259154886007309 0.0728643238544464 3.16100025177002 255 240 88
0.267339318990707 0.072746179997921 3.1560001373291 255 238 85
0.275408089160919 0.0726049095392227 3.15000009536743 255 240 88
0.284344732761383 0.0726940557360649 3.15400004386902 255 241 84
0.292466193437576 0.0725756958127022 3.14900016784668 255 246 70
0.301037311553955 0.0725724771618843 3.14900016784668 255 244 68
0.309312403202057 0.0725000500679016 3.14600014686584 255 244 74
0.318277269601822 0.0725888460874558 3.15000009536743 255 242 79
0.327262759208679 0.0726775601506233 3.15400004386902 255 239 76
0.33637535572052 0.07278922945261 3.15900015830994 255 239 86
0.345404714345932 0.0728777647018433 3.16300010681152 255 246 109
0.354006916284561 0.0728740617632866 3.16300010681152 224 78 47
0.362149357795715 0.0727781429886818 3.15900015830994 236 76 55
0.370268672704697 0.0726821348071098 3.15500020980835 244 75 63
0.37872526049614 0.0726551860570908 3.15400004386902 238 69 57
0.388157427310944 0.0728124380111694 3.16100025177002 241 72 60
0.396998763084412 0.0728544294834137 3.16300010681152 247 76 66
0.405593127012253 0.0728502869606018 3.16300010681152 249 78 68
0.412876695394516 0.0726157799363136 3.15300011634827 245 71 63
0.421842187643051 0.0726805999875069 3.1560001373291 242 68 60
0.430822521448135 0.0727453529834747 3.15900015830994 250 74 66
0.439678609371185 0.0727870017290115 3.16100025177002 248 72 64
0.447976976633072 0.0727364793419838 3.15900015830994 247 74 64
0.456985592842102 0.0728010237216949 3.16200017929077 241 68 56
0.466156333684921 0.0728885233402252 3.16600012779236 251 78 66
0.474447548389435 0.0728378221392632 3.16400003433228 246 73 61
0.481657803058624 0.0726259425282478 3.15500020980835 242 69 57
0.490526795387268 0.0726672112941742 3.15700006484985 250 74 68
0.499879509210587 0.0727774798870087 3.16200017929077 247 70 66
0.509418606758118 0.0729106962680817 3.16800022125244 248 69 68
0.51751708984375 0.0728367194533348 3.16500020027161 238 59 58
0.525431513786316 0.0727396905422211 3.16100025177002 240 62 58
0.533322751522064 0.0726426169276237 3.15700006484985 249 72 64
0.541019082069397 0.0725225210189819 3.15200018882751 246 70 61
0.549558699131012 0.0725174099206924 3.15200018882751 249 73 64
0.558627724647522 0.0725812688469887 3.15500020980835 255 79 70
0.567172229290009 0.0725760757923126 3.15500020980835 251 75 69
0.574985325336456 0.0724788308143616 3.15100026130676 255 79 73
0.583330631256104 0.0724505558609962 3.15000009536743 252 76 70
0.592232823371887 0.0724912509322166 3.15200018882751 255 83 77
0.60095351934433 0.0725088939070702 3.15300011634827 255 79 75
0.609098315238953 0.072457529604435 3.15100026130676 255 80 76
0.617622673511505 0.0724521204829216 3.15100026130676 245 67 63
0.626145482063293 0.0724466741085052 3.15100026130676 255 74 71
0.635472357273102 0.0725331604480743 3.15500020980835 255 77 76
0.645635902881622 0.0727115571498871 3.16300010681152 253 75 75
0.656875193119049 0.0730048269033432 3.17600011825562 252 74 76
0.667764246463776 0.0732520595192909 3.18700003623962 255 83 89
0.67977237701416 0.0736141577363014 3.20300006866455 248 125 130
0.172370761632919 0.0640236064791679 3.14900016784668 202 95 83
0.181127026677132 0.0640828460454941 3.15200018882751 233 83 69
0.189537778496742 0.0640200227499008 3.14900016784668 232 74 58
0.197994351387024 0.0639774426817894 3.1470000743866 235 75 59
0.206636220216751 0.063995786011219 3.14800024032593 238 83 62
0.224218085408211 0.064113512635231 3.15400004386902 255 238 97
0.232884675264359 0.0641316100955009 3.15500020980835 255 242 68
0.241402700543404 0.0641089603304863 3.15400004386902 255 244 66
0.24991437792778 0.0640862435102463 3.15300011634827 255 246 74
0.257599830627441 0.0638602077960968 3.14200019836426 255 243 75
0.26573258638382 0.0637560561299324 3.13700008392334 253 242 72
0.27436175942421 0.0637737736105919 3.13800024986267 255 246 69
0.283175617456436 0.0638320595026016 3.14100003242493 255 247 70
0.29135462641716 0.0637480169534683 3.13700008392334 255 250 64
0.299988776445389 0.0637655109167099 3.13800024986267 255 246 68
0.30892226099968 0.0638438910245895 3.14200019836426 255 247 69
0.317775279283524 0.0639018788933754 3.14500021934509 255 248 71
0.326643526554108 0.0639597922563553 3.14800024032593 255 247 65
0.335526883602142 0.064017616212368 3.15100026130676 255 245 73
0.344425350427628 0.0640753731131554 3.15400004386902 255 247 95
0.352331608533859 0.0639502331614494 3.14800024032593 227 79 48
0.360662579536438 0.0639062821865082 3.14600014686584 238 74 51
0.36898136138916 0.0638622716069222 3.14400005340576 244 74 59
0.377768337726593 0.0638994500041008 3.14600014686584 236 66 51
0.386933296918869 0.0639974921941757 3.15100026130676 240 70 55
0.395621985197067 0.0640142187476158 3.15200018882751 246 73 61
0.403673619031906 0.0639293491840363 3.14800024032593 250 78 63
0.410785496234894 0.0637022778391838 3.13700008392334 249 77 62
0.420108526945114 0.0638203620910645 3.14300012588501 243 70 58
0.429190039634705 0.0638977736234665 3.1470000743866 243 67 58
0.437874555587769 0.0639142096042633 3.14800024032593 246 70 61
0.446279495954514 0.0638899803161621 3.1470000743866 249 76 64
0.45496654510498 0.06390630453825 3.14800024032593 246 73 61
0.46395206451416 0.0639631599187851 3.15100026130676 247 75 60
0.471602857112885 0.0638372898101807 3.14500021934509 253 78 64
0.479066878557205 0.0636910647153854 3.13800024986267 246 71 57
0.487423688173294 0.0636665970087051 3.13700008392334 250 74 65
0.497512698173523 0.0638653188943863 3.1470000743866 248 72 66
0.506850361824036 0.063962496817112 3.15200018882751 248 70 66
0.515232503414154 0.0639378726482391 3.15100026130676 245 67 63
0.522278010845184 0.0637508928775787 3.14200019836426 251 73 69
0.53028666973114 0.0636856108903885 3.13900017738342 252 74 69
0.538449227809906 0.0636405870318413 3.13700008392334 249 73 67
0.547122478485107 0.0636563897132874 3.13800024986267 253 75 70
0.55615371465683 0.0637127235531807 3.14100003242493 248 70 66
0.564660370349884 0.0637081563472748 3.14100003242493 250 72 68
0.572618007659912 0.0636427104473114 3.13800024986267 246 68 64
0.581668972969055 0.0636989176273346 3.14100003242493 254 76 71
0.590358912944794 0.0637145265936852 3.14200019836426 255 78 73
0.599052608013153 0.0637300983071327 3.14300012588501 254 76 71
0.606397092342377 0.0636037141084671 3.13700008392334 255 77 74
0.614687621593475 0.0635786801576614 3.13600015640259 251 66 65
0.623766005039215 0.0636347234249115 3.13900017738342 253 70 70
0.635074615478516 0.0639136955142021 3.15300011634827 252 75 73
0.647274136543274 0.0642736926674843 3.17100024223328 223 79 74
0.162799507379532 0.0551022626459599 3.13000011444092 219 80 71
0.171770244836807 0.0552416630089283 3.13800024986267 228 79 62
0.180668979883194 0.0553457662463188 3.14400005340576 230 69 53
0.188997820019722 0.0552737675607204 3.14000010490417 242 81 65
0.197367012500763 0.0552193112671375 3.13700008392334 236 75 59
0.205916032195091 0.0552175864577293 3.13700008392334 236 79 58
0.223082706332207 0.0552315413951874 3.13800024986267 255 240 80
0.231705769896507 0.0552472099661827 3.13900017738342 255 241 65
0.240180298686028 0.0552276186645031 3.13800024986267 255 244 67
0.248727723956108 0.0552255474030972 3.13800024986267 255 246 69
0.256700307130814 0.0551002360880375 3.13100004196167 255 247 70
0.265057325363159 0.0550628565251827 3.12900018692017 255 247 70
0.273577302694321 0.0550605989992619 3.12900018692017 255 246 68
0.282276600599289 0.0550934746861458 3.13100004196167 255 249 68
0.290521323680878 0.0550383068621159 3.12800025939941 255 247 69
0.299417853355408 0.0551062487065792 3.132000207901 255 247 69
0.308236747980118 0.0551565252244473 3.13500022888184 255 249 71
0.316969752311707 0.05518913641572 3.13700008392334 255 246 68
0.325297474861145 0.0551513247191906 3.13500022888184 255 248 63
0.334358483552933 0.0552365891635418 3.14000010490417 255 247 70
0.342899471521378 0.0552338324487209 3.14000010490417 255 255 106
0.350879698991776 0.0551430769264698 3.13500022888184 210 64 33
0.358487516641617 0.0549995042383671 3.12700009346008 238 73 54
0.367224156856537 0.0550317689776421 3.12900018692017 248 76 61
0.375730216503143 0.0550287961959839 3.12900018692017 241 69 54
0.385340183973312 0.0551840364933014 3.13800024986267 240 68 53
0.393868148326874 0.0551809519529343 3.13800024986267 245 70 56
0.402010023593903 0.0551250614225864 3.13500022888184 245 70 56
0.408955663442612 0.0549108795821667 3.1230001449585 242 67 53
0.41770613193512 0.0549428164958954 3.12500023841858 248 73 59
0.426329582929611 0.0549571104347706 3.12600016593933 243 68 56
0.435513526201248 0.055041678249836 3.13100004196167 253 78 66
0.443588763475418 0.0549855567514896 3.12800025939941 248 76 61
0.452224284410477 0.0549997054040432 3.12900018692017 242 70 55
0.460863769054413 0.0550138093531132 3.13000011444092 245 73 58
0.469807177782059 0.0550630129873753 3.13300013542175 246 71 57
0.477696716785431 0.0549891442060471 3.12900018692017 247 72 58
0.485563069581985 0.0549152493476868 3.12500023841858 246 70 61
0.494196772575378 0.0549291744828224 3.12600016593933 247 70 62
0.502995133399963 0.0549606308341026 3.12800025939941 254 76 72
0.510494649410248 0.0548514910042286 3.12200021743774 246 68 64
0.518292605876923 0.0547774583101273 3.11800003051758 250 72 68
0.526912093162537 0.0547912381589413 3.11900019645691 249 71 67
0.536221981048584 0.0548752285540104 3.12400007247925 255 77 73
0.545034468173981 0.0549064949154854 3.12600016593933 254 76 72
0.553502023220062 0.0549025870859623 3.12600016593933 254 74 70
0.561788320541382 0.0548810921609402 3.12500023841858 249 69 65
0.570067644119263 0.0548595637083054 3.12400007247925 254 74 70
0.57963627576828 0.0549609251320362 3.13000011444092 255 76 72
0.588108539581299 0.0549568831920624 3.13000011444092 255 79 74
0.596388697624207 0.0549352690577507 3.12900018692017 255 80 71
0.604468464851379 0.0548960715532303 3.12700009346008 255 81 72
0.613907933235168 0.0549797378480434 3.132000207901 255 76 72
0.624764025211334 0.0551862344145775 3.14400005340576 255 78 77
0.635884881019592 0.0554102212190628 3.15700006484985 255 103 100
0.137110739946365 0.0465388707816601 3.12800025939941 203 110 108
0.145314082503319 0.0464336909353733 3.12100005149841 211 82 82
0.153725117444992 0.0464028418064117 3.11900019645691 232 76 69
0.162228673696518 0.0464016906917095 3.11900019645691 240 77 72
0.171224221587181 0.0465343706309795 3.12800025939941 234 70 65
0.179865911602974 0.046562846750021 3.13000011444092 229 64 55
0.188397392630577 0.0465615093708038 3.13000011444092 238 73 63
0.196739420294762 0.0465154908597469 3.12700009346008 236 66 60
0.205458179116249 0.0465586632490158 3.13000011444092 238 77 61
0.214124098420143 0.0465869009494781 3.132000207901 255 231 108
0.222728982567787 0.0466002076864243 3.13300013542175 255 240 80
0.230969443917274 0.0465390868484974 3.12900018692017 255 243 71
0.239416763186455 0.0465225279331207 3.12800025939941 255 246 69
0.247540697455406 0.0464464277029037 3.1230001449585 255 246 69
0.255882412195206 0.0464148931205273 3.12100005149841 255 246 69
0.26404282450676 0.0463535636663437 3.11700010299683 255 247 70
0.272530198097229 0.0463516674935818 3.11700010299683 255 246 68
0.281106740236282 0.0463645868003368 3.11800003051758 255 246 68
0.289780557155609 0.0463923215866089 3.12000012397766 255 247 70
0.298655331134796 0.0464497357606888 3.12400007247925 255 249 72
0.307452499866486 0.046492226421833 3.12700009346008 255 246 68
0.31565859913826 0.0464454591274261 3.12400007247925 255 248 67
0.323950976133347 0.0464135110378265 3.12200021743774 255 248 66
0.33233779668808 0.0463963784277439 3.12100005149841 255 249 67
0.341045588254929 0.0464237928390503 3.1230001449585 255 250 99
0.349427312612534 0.0464065708220005 3.12200021743774 217 71 40
0.357687652111053 0.0463744252920151 3.12000012397766 235 69 54
0.366053253412247 0.0463571064174175 3.11900019645691 246 71 59
0.374772310256958 0.0463843233883381 3.12100005149841 242 67 55
0.384115040302277 0.0464858040213585 3.12800025939941 241 66 54
0.392615884542465 0.0464832000434399 3.12800025939941 251 77 59
0.400858789682388 0.0464508309960365 3.12600016593933 245 69 55
0.407780081033707 0.0462698414921761 3.11400008201599 242 66 54
0.416506081819534 0.0462968312203884 3.11600017547607 243 68 56
0.424696058034897 0.0462643466889858 3.11400008201599 246 70 61
0.433847486972809 0.0463358275592327 3.11900019645691 255 79 71
0.441748350858688 0.0462735593318939 3.11500024795532 249 73 64
0.450059503316879 0.0462558083236218 3.11400008201599 245 69 60
0.457922220230103 0.0461934767663479 3.1100001335144 251 76 60
0.467561155557632 0.0463093370199203 3.11800003051758 247 70 62
0.4758680164814 0.0462914817035198 3.11700010299683 252 72 67
0.484323352575302 0.0462884455919266 3.11700010299683 246 66 62
0.492303013801575 0.046240821480751 3.11400008201599 249 69 64
0.500264763832092 0.0461931712925434 3.11100006103516 250 68 63
0.508045375347137 0.0461306497454643 3.10700011253357 253 71 66
0.516135156154633 0.0460977926850319 3.10500025749207 244 64 59
0.526070892810822 0.0462282076478004 3.11400008201599 255 77 72
0.534680783748627 0.0462398231029511 3.11500024795532 255 78 73
0.5422483086586 0.046162337064743 3.1100001335144 253 70 67
0.550318419933319 0.046129371970892 3.10800004005432 255 79 78
0.55945485830307 0.0461854226887226 3.11200022697449 254 71 70
0.568428993225098 0.0462266057729721 3.11500024795532 254 71 70
0.577973306179047 0.0463122688233852 3.12100005149841 255 72 71
0.586045444011688 0.0462791919708252 3.11900019645691 255 74 73
0.59505820274353 0.0463202819228172 3.12200021743774 252 74 76
0.604472279548645 0.0463910140097141 3.12700009346008 248 83 74
0.616067945957184 0.0466248914599419 3.14300012588501 247 98 95
0.15352900326252 0.037846926599741 3.11500024795532 221 68 68
0.161865651607513 0.0378095395863056 3.11200022697449 229 70 67
0.170787423849106 0.0379057414829731 3.12000012397766 237 73 70
0.179349884390831 0.0379168502986431 3.12100005149841 236 70 67
0.1879772990942 0.0379400588572025 3.1230001449585 240 74 68
0.196111530065536 0.0378660336136818 3.11700010299683 242 75 65
0.204606160521507 0.0378648526966572 3.11700010299683 237 76 59
0.212894886732101 0.0378271788358688 3.11400008201599 255 239 106
0.22130860388279 0.0378137566149235 3.11300015449524 255 241 79
0.229346945881844 0.0377395562827587 3.10700011253357 255 245 71
0.237887501716614 0.0377503372728825 3.10800004005432 255 246 69
0.246432602405548 0.0377610735595226 3.10900020599365 255 247 69
0.254982203245163 0.0377717614173889 3.1100001335144 255 247 66
0.26311269402504 0.0377216786146164 3.10600018501282 255 246 68
0.271482795476913 0.0377079956233501 3.10500025749207 255 249 71
0.280206978321075 0.0377428308129311 3.10800004005432 255 249 71
0.28876069188118 0.0377533473074436 3.10900020599365 255 247 69
0.297414392232895 0.0377759523689747 3.11100006103516 255 246 68
0.305487990379334 0.0377256646752357 3.10700011253357 255 247 66
0.313841819763184 0.0377117693424225 3.10600018501282 255 249 68
0.32177397608757 0.0376492589712143 3.1010000705719 255 248 66
0.330529630184174 0.0376838445663452 3.10400009155273 255 248 66
0.339191257953644 0.0377062447369099 3.10600018501282 255 250 98
0.348198294639587 0.0377650186419487 3.11100006103516 235 90 54
0.356428802013397 0.0377387776970863 3.10900020599365 238 70 55
0.364647150039673 0.037712499499321 3.10700011253357 242 66 57
0.372853368520737 0.0376861914992332 3.10500025749207 246 72 56
0.381784170866013 0.0377326607704163 3.10900020599365 240 63 54
0.389982372522354 0.0377062745392323 3.10700011253357 244 67 58
0.398424804210663 0.03770412504673 3.10700011253357 247 70 61
0.406342059373856 0.0376534014940262 3.10300016403198 249 72 64
0.414503574371338 0.0376269184052944 3.1010000705719 248 71 63
0.421970903873444 0.0375397354364395 3.09400010108948 243 67 59
0.43065071105957 0.037561722099781 3.09600019454956 247 71 63
0.438630968332291 0.03752301633358 3.09300017356873 246 70 61
0.447171628475189 0.0375328063964844 3.09400010108948 249 73 64
0.455127239227295 0.0374940410256386 3.09100008010864 251 73 68
0.465764343738556 0.0376735776662827 3.10600018501282 247 67 63
0.474649429321289 0.0377075187861919 3.10900020599365 247 64 61
0.482927709817886 0.0376929119229317 3.10800004005432 248 65 64
0.489618241786957 0.0375570170581341 3.09700012207031 245 62 61
0.49672994017601 0.0374574847519398 3.08900022506714 255 72 69
0.503960311412811 0.0373700633645058 3.08200025558472 254 72 67
0.513644635677338 0.0374644957482815 3.09000015258789 253 71 66
0.524046540260315 0.037607379257679 3.10200023651123 246 64 59
0.532967209815979 0.0376411192119122 3.10500025749207 255 77 74
0.540682137012482 0.0375899747014046 3.1010000705719 255 72 71
0.548373758792877 0.0375388152897358 3.09700012207031 255 76 75
0.558019697666168 0.0376209616661072 3.10400009155273 252 69 68
0.56642472743988 0.037618238478899 3.10400009155273 255 73 68
0.575754046440125 0.0376760847866535 3.10900020599365 254 72 67
0.584733247756958 0.0377096682786942 3.11200022697449 253 72 71
0.595442473888397 0.0378522798418999 3.12400007247925 234 68 72
0.60718160867691 0.0380554273724556 3.14100003242493 220 94 99
0.17013144493103 0.0292829144746065 3.10800004005432 197 66 72
0.178488850593567 0.0292632654309273 3.10600018501282 233 76 74
0.187135607004166 0.0292906910181046 3.10900020599365 235 72 69
0.195105910301208 0.0292144436389208 3.1010000705719 239 78 62
0.203425705432892 0.0291946940124035 3.0990002155304 223 65 48
0.211733758449554 0.0291749015450478 3.09700012207031 255 242 127
0.220385566353798 0.0292021781206131 3.10000014305115 255 239 87
0.228683799505234 0.029182318598032 3.09800004959106 255 246 69
0.23712332546711 0.0291812624782324 3.09800004959106 255 247 70
0.24524487555027 0.0291424952447414 3.09400010108948 255 247 66
0.253835678100586 0.0291602071374655 3.09600019454956 255 246 65
0.261758714914322 0.0291025415062904 3.09000015258789 255 250 69
0.270522385835648 0.0291390214115381 3.09400010108948 255 246 68
0.279036372900009 0.029147207736969 3.09500002861023 255 248 71
0.287647634744644 0.029164781793952 3.09700012207031 255 250 73
0.296077519655228 0.0291634872555733 3.09700012207031 255 247 70
0.304309666156769 0.0291433278471231 3.09500002861023 255 246 69
0.312630861997604 0.0291325524449348 3.09400010108948 255 246 69
0.320841699838638 0.0291123297065496 3.09200024604797 255 250 65
0.329253494739532 0.0291109085083008 3.09200024604797 255 247 69
0.33831924200058 0.0291659384965897 3.09800004959106 255 248 96
0.347304582595825 0.0292115211486816 3.10300016403198 218 73 38
0.355857282876968 0.0292194131761789 3.10400009155273 242 73 61
0.363475292921066 0.029151976108551 3.09700012207031 239 63 55
0.371654331684113 0.0291315726935863 3.09500002861023 242 68 52
0.379821240901947 0.0291111450642347 3.09300017356873 245 66 66
0.387724936008453 0.0290718693286181 3.08900022506714 250 72 68
0.396374940872192 0.0290890317410231 3.09100008010864 243 65 60
0.404903560876846 0.0290967598557472 3.09200024604797 250 72 67
0.413302570581436 0.0290950462222099 3.09200024604797 246 68 63
0.420199930667877 0.0289898011833429 3.08100008964539 245 69 63
0.42856627702713 0.0289880428463221 3.08100008964539 250 73 69
0.436364054679871 0.028948625549674 3.0770001411438 245 69 61
0.445005774497986 0.0289656333625317 3.07900023460388 253 77 71
0.45262622833252 0.0289167668670416 3.07400012016296 250 70 66
0.463067263364792 0.0290465988218784 3.08800005912781 247 63 68
0.472208887338638 0.0290917437523603 3.09300017356873 241 55 66
0.480754524469376 0.0290992353111506 3.09400010108948 248 63 62
0.487249076366425 0.0289844498038292 3.08200025558472 249 64 63
0.494641721248627 0.0289260819554329 3.07600021362305 253 68 65
0.503472030162811 0.0289523247629404 3.07900023460388 254 69 66
0.512649536132813 0.0289973504841328 3.08400011062622 253 68 65
0.522359490394592 0.0290705561637878 3.09200024604797 255 76 73
0.530051469802856 0.0290309134870768 3.08800005912781 255 70 67
0.538592159748077 0.0290382653474808 3.08900022506714 255 76 75
0.546605408191681 0.0290173962712288 3.08700013160706 254 71 70
0.556763708591461 0.0291093029081821 3.09700012207031 255 71 70
0.565879642963409 0.0291447900235653 3.1010000705719 255 79 78
0.576867699623108 0.0292742345482111 3.11500024795532 252 76 70
0.587930023670197 0.0294036436825991 3.12900018692017 255 88 87
0.600019454956055 0.0295799989253283 3.14800024032593 255 106 112
0.177685037255287 0.0206980835646391 3.09200024604797 205 78 78
0.18629364669323 0.0207175686955452 3.09500002861023 227 77 73
0.194288745522499 0.0206700935959816 3.08800005912781 233 72 61
0.202310562133789 0.0206292886286974 3.08200025558472 221 65 49
0.210435599088669 0.0206018444150686 3.07800006866455 255 242 119
0.218680202960968 0.0205877646803856 3.07600021362305 255 242 82
0.227134525775909 0.020593736320734 3.0770001411438 255 248 70
0.235823050141335 0.0206197611987591 3.08100008964539 255 248 67
0.244294673204422 0.0206256844103336 3.08200025558472 255 247 69
0.252770811319351 0.0206315778195858 3.08300018310547 255 247 70
0.260743141174316 0.0205972995609045 3.07800006866455 255 246 78
0.269124448299408 0.0205964557826519 3.07800006866455 255 245 77
0.277414590120316 0.0205888953059912 3.0770001411438 255 246 74
0.285884022712708 0.0205946955829859 3.07800006866455 255 245 79
0.294453412294388 0.0206071622669697 3.08000016212463 255 244 80
0.30283597111702 0.0206062234938145 3.08000016212463 255 247 81
0.311116367578506 0.0205985717475414 3.07900023460388 255 246 83
0.3194939494133 0.0205975882709026 3.07900023460388 255 245 88
0.327763885259628 0.0205898899585009 3.07800006866455 255 243 94
0.336464047431946 0.0206089299172163 3.08100008964539 255 255 140
0.344955414533615 0.020614568144083 3.08200025558472 216 66 35
0.353336423635483 0.0206134952604771 3.08200025558472 240 70 55
0.361481457948685 0.0205990262329578 3.08000016212463 248 72 63
0.369494169950485 0.0205778460949659 3.0770001411438 243 65 60
0.377243787050247 0.0205432772636414 3.07200002670288 242 62 57
0.385090440511703 0.0205153785645962 3.06800007820129 249 69 64
0.393683433532715 0.0205275826156139 3.07000017166138 252 72 68
0.402809798717499 0.0205665100365877 3.07600021362305 250 72 68
0.410764336585999 0.0205452404916286 3.07300019264221 243 65 60
0.418428391218185 0.0205105822533369 3.06800007820129 249 73 67
0.426342189311981 0.0204892847687006 3.06500005722046 246 70 64
0.434238284826279 0.0204679667949677 3.06200003623962 250 72 67
0.442983865737915 0.0204867403954268 3.06500005722046 252 72 67
0.451597064733505 0.0204988121986389 3.06700015068054 247 65 60
0.461419373750687 0.020564328879118 3.0770001411438 251 66 63
0.469920456409454 0.0205696783959866 3.07800006866455 255 68 67
0.477182358503342 0.0205215495079756 3.07100009918213 255 71 70
0.483930647373199 0.0204533655196428 3.06100010871887 255 73 72
0.492070436477661 0.0204453095793724 3.06000018119812 255 76 75
0.501347959041595 0.0204840078949928 3.06600022315979 255 71 70
0.510656476020813 0.0205226838588715 3.07200002670288 255 72 71
0.519658207893372 0.0205479823052883 3.07600021362305 255 76 75
0.527993500232697 0.020546542480588 3.07600021362305 253 70 69
0.537547826766968 0.0205918457359076 3.08300018310547 255 75 74
0.547138452529907 0.0206371303647757 3.09000015258789 252 69 68
0.558383524417877 0.0207424964755774 3.10600018501282 247 66 75
0.568983674049377 0.0208211280405521 3.11800003051758 247 81 92
0.185632035136223 0.0122326351702213 3.08400011062622 209 112 127
0.193660065531731 0.0122084720060229 3.07800006866455 220 68 62
0.201851561665535 0.0121961906552315 3.07500004768372 222 76 61
0.210025936365128 0.012183896265924 3.07200002670288 255 248 133
0.217969834804535 0.012159688398242 3.06600022315979 255 240 87
0.22573259472847 0.0121275372803211 3.05800008773804 255 255 83
0.234445914626122 0.0121469274163246 3.06300020217896 255 255 91
0.243106305599213 0.0121623342856765 3.06700015068054 255 255 95
0.251705586910248 0.0121737606823444 3.07000017166138 255 254 97
0.259557843208313 0.0121494848281145 3.06400012969971 255 251 98
0.267638713121414 0.0121370907872915 3.06100010871887 255 248 97
0.275792449712753 0.0121286502107978 3.05900025367737 255 241 92
0.284398645162582 0.0121400188654661 3.06200003623962 255 239 110
0.334608346223831 0.0121445078402758 3.06400012969971 216 128 60
0.342717736959457 0.0121359610930085 3.06200003623962 239 75 54
0.350929737091064 0.0121313668787479 3.06100010871887 251 76 62
0.359369724988937 0.0121346870437264 3.06200003623962 251 75 66
0.367333620786667 0.0121221430599689 3.05900025367737 244 67 59
0.375034302473068 0.0121016604825854 3.05400013923645 246 66 61
0.382580995559692 0.0120772076770663 3.04800009727478 247 67 63
