0.151803433895111 0.171851828694344 3.3730001449585 255 121 116
0.16111458837986 0.171949848532677 3.37500023841858 255 116 113
0.170486509799957 0.172098591923714 3.37800025939941 255 123 128
0.179554954171181 0.171941414475441 3.37500023841858 255 120 125
0.188606292009354 0.171784028410912 3.37200021743774 255 121 117
0.197757795453072 0.171728327870369 3.37100005149841 255 122 118
0.20721010863781 0.171927124261856 3.37500023841858 255 122 116
0.216555163264275 0.172023788094521 3.37700009346008 255 125 119
0.226044028997421 0.172222137451172 3.38100004196167 255 130 126
0.235136345028877 0.172114625573158 3.37900018692017 255 128 122
0.244072213768959 0.171905055642128 3.37500023841858 255 129 123
0.253510624170303 0.172051802277565 3.37800025939941 255 127 121
0.262653321027756 0.171994611620903 3.37700009346008 255 130 128
0.271387070417404 0.171682581305504 3.37100005149841 252 123 121
0.280253529548645 0.17147222161293 3.36700010299683 255 132 130
0.28952693939209 0.171516329050064 3.36800026893616 255 136 133
0.299691587686539 0.172069415450096 3.37900018692017 255 141 136
0.309000909328461 0.172113060951233 3.38000011444092 255 142 136
0.318220466375351 0.172105610370636 3.38000011444092 255 144 137
0.327438831329346 0.172097966074944 3.38000011444092 255 149 145
0.337452858686447 0.172497436404228 3.38800024986267 255 153 151
0.345974296331406 0.172132983803749 3.38100004196167 255 160 158
0.354141145944595 0.171615660190582 3.37100005149841 232 139 137
-0.00494213635101914 0.16319651901722 3.3840000629425 255 135 140
0.00429260497912765 0.162569582462311 3.37100005149841 253 108 115
0.0134562496095896 0.161942437291145 3.3580002784729 247 92 99
0.022622911259532 0.161845564842224 3.35600018501282 255 105 109
0.0317880213260651 0.161796689033508 3.35500025749207 255 104 107
0.0409597419202328 0.161795809864998 3.35500025749207 255 103 103
0.0500565879046917 0.161553606390953 3.35000014305115 255 103 103
0.0592319555580616 0.161600530147552 3.3510000705719 253 100 98
0.0684329494833946 0.16169548034668 3.35300016403198 255 111 111
0.077760323882103 0.162031307816505 3.3600001335144 255 111 111
0.0870480090379715 0.16222220659256 3.36400008201599 255 107 109
0.0961283519864082 0.162027165293694 3.3600001335144 255 109 113
0.105217784643173 0.161880105733871 3.35700011253357 255 111 115
0.114392600953579 0.161877498030663 3.35700011253357 255 113 115
0.123787827789783 0.162164002656937 3.36300015449524 255 109 111
0.133057206869125 0.162257418036461 3.36500024795532 255 111 111
0.142125591635704 0.162109524011612 3.36200022697449 255 111 118
0.15122202038765 0.162009611725807 3.3600001335144 255 116 113
0.16049787402153 0.1621023863554 3.36200022697449 255 122 99
0.169733539223671 0.162146702408791 3.36300015449524 255 116 109
0.178814426064491 0.162046208977699 3.36100006103516 255 116 117
0.187827721238136 0.161897271871567 3.3580002784729 255 117 116
0.196999907493591 0.161892786622047 3.3580002784729 255 120 119
0.2064169049263 0.162080928683281 3.36200022697449 255 120 119
0.215854942798615 0.162268862128258 3.36600017547607 255 120 116
0.224979668855667 0.162215530872345 3.36500024795532 255 129 127
0.234028503298759 0.162113800644875 3.36300015449524 255 125 121
0.2429209202528 0.161915481090546 3.35900020599365 255 127 121
0.252315849065781 0.162054374814034 3.36200022697449 255 128 122
0.261726200580597 0.162193074822426 3.36500024795532 255 129 125
0.270668894052505 0.162042379379272 3.36200022697449 247 118 116
0.279427736997604 0.161795109510422 3.35700011253357 255 129 124
0.288416117429733 0.161692246794701 3.35500025749207 255 134 129
0.298190742731094 0.162022933363914 3.36200022697449 255 136 131
0.307819575071335 0.16225703060627 3.36700010299683 255 139 133
0.317003846168518 0.162249982357025 3.36700010299683 255 139 132
0.325896322727203 0.162098199129105 3.36400008201599 255 141 135
0.335368901491165 0.162235364317894 3.36700010299683 255 154 148
0.344140261411667 0.162035048007965 3.36300015449524 255 155 150
0.352048128843308 0.161449119448662 3.3510000705719 255 159 154
0.359673708677292 0.160766750574112 3.33700013160706 234 149 147
0.0134565625339746 0.152765795588493 3.3580002784729 219 105 108
0.0225695073604584 0.152310445904732 3.34800004959106 252 98 101
0.0316750593483448 0.152082368731499 3.34300017356873 255 109 109
0.0408386066555977 0.152172550559044 3.34500026702881 255 106 106
0.0499083176255226 0.151944056153297 3.34000015258789 253 100 100
0.0590919144451618 0.152079299092293 3.34300017356873 255 103 103
0.068087562918663 0.151759430766106 3.3360002040863 255 106 106
0.0773686841130257 0.152076244354248 3.34300017356873 255 104 107
0.0866877436637878 0.152392834424973 3.35000014305115 255 102 105
0.0959589034318924 0.152572721242905 3.35400009155273 255 105 109
0.105000793933868 0.152388527989388 3.35000014305115 255 110 114
0.113952234387398 0.152113139629364 3.34400010108948 255 110 112
0.123275347054005 0.152337938547134 3.3490002155304 253 103 103
0.132467120885849 0.152380555868149 3.35000014305115 255 120 117
0.141579255461693 0.15233202278614 3.3490002155304 252 105 111
0.150550380349159 0.152146831154823 3.34500026702881 255 114 111
0.159642219543457 0.152097895741463 3.34400010108948 255 116 113
0.168828934431076 0.152139738202095 3.34500026702881 255 118 115
0.178126841783524 0.152272343635559 3.34800004959106 251 110 111
0.187384516000748 0.152359247207642 3.35000014305115 252 111 112
0.196417689323425 0.152264058589935 3.34800004959106 255 124 123
0.205807596445084 0.152441561222076 3.35200023651123 255 127 126
0.21509025990963 0.152527868747711 3.35400009155273 255 120 116
0.224316164851189 0.152568534016609 3.35500025749207 255 118 114
0.233268305659294 0.152427107095718 3.35200023651123 255 125 119
0.242058485746384 0.152194544672966 3.34700012207031 255 126 120
0.251345813274384 0.152280136942863 3.3490002155304 255 132 126
0.260254204273224 0.152138158679008 3.34600019454956 255 128 122
0.269547790288925 0.152223363518715 3.34800004959106 255 133 127
0.278185337781906 0.151944667100906 3.34200024604797 255 128 123
0.287476867437363 0.152029514312744 3.34400010108948 255 131 126
0.296689510345459 0.152068704366684 3.34500026702881 255 134 129
0.30608931183815 0.152198627591133 3.34800004959106 255 137 134
0.314939469099045 0.152055636048317 3.34500026702881 255 138 133
0.324256509542465 0.152139768004417 3.34700012207031 254 138 132
0.333782464265823 0.152314603328705 3.3510000705719 255 149 143
0.342612713575363 0.152171120047569 3.34800004959106 255 145 139
0.350689917802811 0.151709318161011 3.33800005912781 255 143 137
0.358819156885147 0.151292875409126 3.32900023460388 255 148 144
0.367892652750015 0.15128530561924 3.32900023460388 255 153 149
0.377644240856171 0.151550218462944 3.33500027656555 240 137 135
0.0134728848934174 0.143759548664093 3.36200022697449 226 116 116
0.0225025862455368 0.14273290336132 3.33800005912781 238 100 99
0.0315430946648121 0.142347499728203 3.32900023460388 255 110 109
0.0406685695052147 0.142432242631912 3.33100008964539 253 103 100
0.0498048141598701 0.142516821622849 3.33300018310547 254 101 99
0.0588280521333218 0.142301872372627 3.32800006866455 255 104 102
0.067762479186058 0.141958475112915 3.32000017166138 254 101 99
0.0768843442201614 0.142042443156242 3.32200026512146 255 104 102
0.086223840713501 0.142468318343163 3.33200025558472 255 106 106
0.0955890566110611 0.142851188778877 3.34100008010864 255 102 105
0.104626961052418 0.142720818519592 3.33800005912781 255 104 107
0.113511718809605 0.14241923391819 3.33100008964539 253 103 100
0.122652240097523 0.142459496855736 3.33200025558472 255 106 103
0.131797760725021 0.142499580979347 3.33300018310547 255 113 109
0.14099046587944 0.142582222819328 3.33500027656555 255 116 111
0.150013506412506 0.142493665218353 3.33300018310547 252 108 103
0.158977285027504 0.142362177371979 3.33000016212463 255 114 111
0.167974516749382 0.142273247241974 3.32800006866455 255 115 112
0.177066564559937 0.142269656062126 3.32800006866455 255 122 119
0.186437606811523 0.142479613423347 3.33300018310547 255 120 117
0.195600524544716 0.142518386244774 3.33400011062622 255 124 119
0.204706773161888 0.142514243721962 3.33400011062622 255 123 118
0.213940501213074 0.142595410346985 3.3360002040863 255 125 120
0.223117411136627 0.142633646726608 3.33700013160706 255 119 114
0.232020571827888 0.142500728368759 3.33400011062622 255 121 116
0.24083411693573 0.142324894666672 3.33000016212463 255 126 118
0.24985009431839 0.142277151346207 3.32900023460388 255 132 124
0.25878182053566 0.142186462879181 3.3270001411438 255 133 127
0.26834574341774 0.142437517642975 3.33300018310547 252 122 116
0.277109026908875 0.142261028289795 3.32900023460388 255 126 122
0.286537170410156 0.142426267266273 3.33300018310547 255 131 126
0.294921666383743 0.142078533768654 3.32500004768372 253 125 120
0.304541409015656 0.142328873276711 3.33100008964539 255 128 126
0.313062876462936 0.142066314816475 3.32500004768372 255 139 134
0.322616189718246 0.14227357506752 3.33000016212463 255 141 135
0.331896781921387 0.142352506518364 3.33200025558472 255 143 137
0.341084659099579 0.142388537526131 3.33300018310547 253 137 131
0.349436342716217 0.142082676291466 3.32600021362305 255 144 138
0.35807192325592 0.141904845833778 3.32200026512146 255 141 135
0.3669054210186 0.141812279820442 3.32000017166138 255 141 135
0.37584000825882 0.141762316226959 3.31900024414063 255 146 142
0.384535819292068 0.14162677526474 3.31600022315979 253 152 150
0.393688768148422 0.141661942005157 3.31700015068054 211 130 127
0.0225569829344749 0.13392998278141 3.34600019454956 219 121 120
0.0314774215221405 0.132968783378601 3.32200026512146 250 106 99
0.0404984764754772 0.132767930626869 3.31700015068054 255 109 105
0.0495517998933792 0.132727012038231 3.31600022315979 255 108 105
0.0585817769169807 0.13264587521553 3.31400012969971 255 107 105
0.0674985349178314 0.132364451885223 3.30700016021729 255 106 104
0.0766776204109192 0.13260318338871 3.31300020217896 254 101 99
0.0859150737524033 0.132881745696068 3.32000017166138 255 105 105
0.0951904430985451 0.133160099387169 3.3270001411438 255 101 104
0.104252949357033 0.133118122816086 3.32600021362305 255 105 108
0.113139167428017 0.132875844836235 3.32000017166138 254 101 99
0.122249811887741 0.132913529872894 3.32100009918213 255 110 107
0.131207257509232 0.132790967822075 3.31800007820129 255 117 113
0.140316918492317 0.132828325033188 3.31900024414063 255 115 108
0.149386435747147 0.132825493812561 3.31900024414063 255 114 110
0.158359870314598 0.132742419838905 3.31700015068054 255 114 110
0.167372241616249 0.132699221372604 3.31600022315979 252 108 103
0.176378473639488 0.132655829191208 3.31500005722046 255 116 113
0.185714170336723 0.132852375507355 3.32000017166138 255 125 122
0.194607093930244 0.13272862136364 3.31700015068054 255 117 112
0.20360566675663 0.132684737443924 3.31600022315979 255 120 115
0.21279039978981 0.132760733366013 3.31800007820129 255 122 117
0.221985176205635 0.132836550474167 3.32000017166138 255 119 112
0.230911672115326 0.132752150297165 3.31800007820129 255 122 114
0.239826381206512 0.132667601108551 3.31600022315979 255 122 114
0.248879313468933 0.132662907242775 3.31600022315979 255 126 120
0.2575424015522 0.13245801627636 3.31100010871887 255 130 124
0.266982346773148 0.132653057575226 3.31600022315979 255 124 120
0.275782585144043 0.132527858018875 3.31300020217896 255 124 125
0.285425126552582 0.132802546024323 3.32000017166138 255 121 122
0.293774366378784 0.132477074861526 3.3120002746582 253 124 124
0.303267329931259 0.132671415805817 3.31700015068054 255 133 131
0.311844944953918 0.132465660572052 3.3120002746582 255 135 133
0.321169167757034 0.132579699158669 3.31500005722046 253 129 124
0.330110162496567 0.132533624768257 3.31400012969971 255 143 138
0.338942170143127 0.132447421550751 3.3120002746582 255 138 135
0.348287314176559 0.132561013102531 3.31500005722046 255 137 134
0.356785267591476 0.132354572415352 3.31000018119812 253 132 127
0.365586221218109 0.132267937064171 3.30800008773804 255 139 133
0.374148488044739 0.132101222872734 3.30400013923645 255 145 142
0.383383452892303 0.132174283266068 3.30600023269653 255 145 142
0.392627894878387 0.132247164845467 3.30800008773804 255 147 143
0.0316201560199261 0.124448254704475 3.33700013160706 204 104 107
0.0404504165053368 0.123552553355694 3.31300020217896 242 108 110
0.0494033172726631 0.123290657997131 3.30600023269653 251 110 111
0.0582823902368546 0.122954025864601 3.29700016975403 255 108 104
0.0672548934817314 0.122878268361092 3.29500007629395 251 99 95
0.0763319060206413 0.122988820075989 3.29800009727478 252 100 96
0.085554413497448 0.123285658657551 3.30600023269653 255 104 102
0.0945627987384796 0.123246699571609 3.3050000667572 252 99 99
0.103565342724323 0.123207591474056 3.30400013923645 254 100 103
0.112357512116432 0.122944571077824 3.29700016975403 255 101 105
0.121515914797783 0.123091578483582 3.30100011825562 255 107 110
0.130418866872787 0.122977383434772 3.29800009727478 255 109 105
0.139600843191147 0.123124063014984 3.30200004577637 255 112 108
0.148624077439308 0.123121418058872 3.30200004577637 255 117 110
0.157742217183113 0.123193189501762 3.30400013923645 255 109 102
0.166820168495178 0.123227506875992 3.3050000667572 250 106 101
0.175849720835686 0.123224377632141 3.3050000667572 255 111 106
0.184990450739861 0.123295664787292 3.30700016021729 255 114 111
0.19378936290741 0.123143099248409 3.3030002117157 255 116 111
0.202872663736343 0.123176783323288 3.30400013923645 255 115 110
0.211896508932114 0.123173028230667 3.30400013923645 255 118 113
0.220718905329704 0.123057276010513 3.30100011825562 255 119 114
0.229524075984955 0.122941389679909 3.29800009727478 255 118 113
0.238456636667252 0.122899912297726 3.29700016975403 254 117 112
0.247908219695091 0.123119212687016 3.3030002117157 255 124 119
0.256535917520523 0.122928328812122 3.29800009727478 255 123 119
0.265940546989441 0.123110048472881 3.3030002117157 255 123 121
0.274788737297058 0.123030692338943 3.30100011825562 254 118 120
0.284398704767227 0.123286619782448 3.30800008773804 255 128 130
0.292892694473267 0.123057924211025 3.30200004577637 255 125 127
0.302084267139435 0.123127207159996 3.30400013923645 255 133 134
0.310720711946487 0.122972771525383 3.30000019073486 255 129 129
0.319431036710739 0.122855477035046 3.29700016975403 255 131 129
0.327825039625168 0.122626252472401 3.29100012779236 255 130 125
0.337003797292709 0.12269501388073 3.29300022125244 255 134 129
0.346717566251755 0.12294989079237 3.30000019073486 255 137 134
0.355390310287476 0.12283206731081 3.29700016975403 255 133 128
0.364155948162079 0.122751384973526 3.29500007629395 255 135 130
0.372569739818573 0.122558832168579 3.29000020027161 252 134 128
0.381998509168625 0.122701399028301 3.29400014877319 255 146 140
0.39073571562767 0.122620344161987 3.29200005531311 255 146 140
0.399824887514114 0.122650913894176 3.29300022125244 255 155 151
0.408669829368591 0.122606880962849 3.29200005531311 255 152 150
0.0407930128276348 0.115464426577091 3.34100008010864 154 60 62
0.0493294782936573 0.114081256091595 3.30100011825562 255 117 116
0.0581243298947811 0.113631062209606 3.28800010681152 249 104 101
0.0670111477375031 0.113457180559635 3.28300023078918 255 112 108
0.0760323852300644 0.113525085151196 3.28500008583069 255 114 110
0.0852712765336037 0.113869279623032 3.29500007629395 255 109 107
0.0943069756031036 0.113902300596237 3.29600024223328 254 101 101
0.103253729641438 0.113831497728825 3.29400014877319 248 94 97
0.111848317086697 0.113414965569973 3.28200006484985 255 102 106
0.120855443179607 0.113447546958923 3.28300023078918 255 101 104
0.129828006029129 0.113445401191711 3.28300023078918 255 103 101
0.139053702354431 0.113650433719158 3.28900027275085 255 108 104
0.147996544837952 0.113613434135914 3.28800010681152 255 114 107
0.156981095671654 0.113610848784447 3.28800010681152 255 114 107
0.166065976023674 0.113677226006985 3.29000020027161 253 107 100
0.175107911229134 0.113708898425102 3.29100012779236 255 114 110
0.184266492724419 0.113809511065483 3.29400014877319 255 114 109
0.192971348762512 0.113633573055267 3.28900027275085 255 116 111
0.202139377593994 0.113733895123005 3.29200005531311 255 119 114
0.210938200354576 0.113626778125763 3.28900027275085 255 117 112
0.219719767570496 0.113519541919231 3.28600025177002 255 127 124
0.228414535522461 0.11337760835886 3.28200006484985 255 124 119
0.237520515918732 0.113442800939083 3.28400015830994 255 118 113
0.246861711144447 0.113611504435539 3.28900027275085 255 120 115
0.255840301513672 0.113607339560986 3.28900027275085 255 121 116
0.264817923307419 0.113603040575981 3.28900027275085 254 116 112
0.27362796664238 0.11352950334549 3.28700017929077 254 116 117
0.282684057950974 0.11355946958065 3.28800010681152 255 122 124
0.29138970375061 0.113451153039932 3.28500008583069 255 126 128
0.300169348716736 0.113377273082733 3.28300023078918 255 126 127
0.308748573064804 0.113234154880047 3.27900004386902 255 127 128
0.317498683929443 0.113160014152527 3.27700018882751 255 131 129
0.326137095689774 0.113051220774651 3.27400016784668 255 128 123
0.335576623678207 0.113218531012535 3.27900004386902 255 133 128
0.345252394676209 0.113454766571522 3.28600025177002 255 139 137
0.353779315948486 0.113311059772968 3.28200006484985 253 130 125
0.362614721059799 0.113270834088326 3.2810001373291 255 136 131
0.371103674173355 0.113126918673515 3.27700018882751 255 139 136
0.380497187376022 0.113259062170982 3.2810001373291 255 140 137
0.388486921787262 0.112976871430874 3.27300024032593 253 138 135
0.397767275571823 0.113074250519276 3.27600026130676 255 143 139
0.407062590122223 0.113171510398388 3.27900004386902 249 147 142
0.416119068861008 0.113199643790722 3.28000020980835 252 155 152
0.0580545738339424 0.104515954852104 3.28400015830994 229 121 121
0.0667877271771431 0.104133069515228 3.2720000743866 254 111 108
0.0756170153617859 0.103972814977169 3.26700019836426 253 104 101
0.0847033336758614 0.104162499308586 3.27300024032593 255 107 107
0.0936218053102493 0.104129254817963 3.2720000743866 255 103 103
0.102565795183182 0.10412771999836 3.2720000743866 255 104 104
0.111134476959705 0.103775970637798 3.26100015640259 255 102 106
0.120268411934376 0.103965081274509 3.26700019836426 255 101 105
0.129395112395287 0.10412222892046 3.2720000743866 255 102 102
0.138675466179848 0.104374714195728 3.28000020980835 255 105 103
0.147458836436272 0.10424517840147 3.27600026130676 255 111 107
0.156172007322311 0.104083694517612 3.27100014686584 255 113 106
0.165008649230003 0.104017548263073 3.26900005340576 255 112 108
0.173940151929855 0.104014903306961 3.26900005340576 255 114 109
0.183094725012779 0.104139402508736 3.27300024032593 255 118 115
0.192211747169495 0.104231938719749 3.27600026130676 255 118 117
0.20140577852726 0.1043561398983 3.28000020980835 255 114 111
0.209979563951492 0.104162074625492 3.27400016784668 255 118 115
0.218653455376625 0.104031503200531 3.27000021934509 255 115 112
0.227165460586548 0.103837184607983 3.26400017738342 255 122 119
0.236294761300087 0.103929057717323 3.26700019836426 255 120 117
0.24551460146904 0.104052610695362 3.27100014686584 255 118 115
0.254444152116776 0.104048788547516 3.27100014686584 255 123 120
0.263372778892517 0.1040448397398 3.27100014686584 255 124 120
0.272133857011795 0.103977151215076 3.26900005340576 255 126 127
0.280711114406586 0.103845737874508 3.26500010490417 255 123 126
0.289442807435989 0.103777818381786 3.26300024986267 255 124 125
0.298071086406708 0.103677980601788 3.26000022888184 255 125 126
0.306870192289352 0.103641636669636 3.2590000629425 255 129 130
0.315178334712982 0.103446178138256 3.25300025939941 255 125 123
0.324349045753479 0.103536807000637 3.25600004196167 250 122 116
0.333842009305954 0.10372269898653 3.26200008392334 255 128 122
0.343891799449921 0.104067452251911 3.27300024032593 255 134 128
0.352706789970398 0.104030519723892 3.2720000743866 255 133 127
0.361736088991165 0.104057066142559 3.27300024032593 255 142 137
0.369976848363876 0.103860966861248 3.26700019836426 255 138 138
0.37864738702774 0.103791922330856 3.26500010490417 255 137 136
0.386712312698364 0.103563845157623 3.25800013542175 255 143 140
0.396073341369629 0.103685349225998 3.26200008392334 255 146 143
0.405578941106796 0.103838495910168 3.26700019836426 255 149 143
0.41422227025032 0.103769063949585 3.26500010490417 255 147 143
0.421816647052765 0.103445291519165 3.25500011444092 255 153 149
0.0666254386305809 0.0949559435248375 3.26400017738342 255 123 124
0.0752709656953812 0.0946058109402657 3.25200009346008 249 104 103
0.0841611325740814 0.0946046635508537 3.25200009346008 252 99 99
0.0930509567260742 0.0946033746004105 3.25200009346008 253 102 102
0.101971760392189 0.0946310609579086 3.25300025939941 255 103 103
0.110590867698193 0.0943967998027802 3.24500012397766 255 107 107
0.119644396007061 0.0945406034588814 3.25000023841858 255 103 103
0.128843396902084 0.0947715193033218 3.25800013542175 254 101 99
0.138127908110619 0.0950314030051231 3.26700019836426 255 106 104
0.146830871701241 0.0948839113116264 3.26200008392334 255 111 107
0.155553638935089 0.0947653949260712 3.25800013542175 255 109 105
0.16425396502018 0.0946467667818069 3.25400018692017 244 108 95
0.172984972596169 0.094557099044323 3.25100016593933 239 106 94
0.181922674179077 0.0945836529135704 3.25200009346008 252 120 112
0.191099792718887 0.0947264358401299 3.257000207901 254 118 109
0.200180694460869 0.0948109030723572 3.26000022888184 253 117 108
0.208635807037354 0.0946044251322746 3.25300025939941 251 111 106
0.217185571789742 0.0944560021162033 3.2480001449585 255 119 114
0.225916013121605 0.094394713640213 3.24600005149841 255 119 114
0.235140964388847 0.0945368707180023 3.25100016593933 255 117 112
0.244242206215858 0.0946207568049431 3.25400018692017 255 113 108
0.253281027078629 0.0946754291653633 3.25600004196167 255 111 108
0.261927276849747 0.0945845991373062 3.25300025939941 255 117 112
0.27038961648941 0.0944355130195618 3.2480001449585 255 119 115
0.278909623622894 0.0943154096603394 3.24400019645691 255 127 123
0.287761598825455 0.094311498105526 3.24400019645691 255 122 116
0.296703845262527 0.0943365395069122 3.24500012397766 255 124 118
0.305368036031723 0.0942742675542831 3.24300026893616 255 127 125
0.313826352357864 0.0941537395119667 3.23900008201599 255 131 127
0.322560578584671 0.0941203385591507 3.23800015449524 250 120 114
0.332209229469299 0.0943484157323837 3.24600005149841 248 118 112
0.341795265674591 0.0945473089814186 3.25300025939941 253 125 119
0.350879192352295 0.0946007594466209 3.25500011444092 251 123 117
0.359530717134476 0.0945378690958023 3.25300025939941 254 128 122
0.367830276489258 0.0943876877427101 3.2480001449585 255 135 135
0.376681119203568 0.094382718205452 3.2480001449585 255 140 140
0.385412037372589 0.0943486019968987 3.24700021743774 255 141 138
0.394257515668869 0.0943434536457062 3.24700021743774 255 143 140
0.403598219156265 0.0944544225931168 3.25100016593933 255 146 140
0.41232493519783 0.0944200158119202 3.25000023841858 255 144 140
0.420267343521118 0.0942112356424332 3.24300026893616 255 145 141
0.429228574037552 0.0942347645759583 3.24400019645691 252 147 145
0.438599050045013 0.094345360994339 3.2480001449585 250 156 157
0.0750868394970894 0.0855049416422844 3.24400019645691 255 124 126
0.0837223306298256 0.085266686975956 3.2350001335144 255 105 107
0.0924513563513756 0.0851600915193558 3.23100018501282 255 104 104
0.101471602916718 0.085316963493824 3.23700022697449 255 106 103
0.110149338841438 0.0851837992668152 3.23200011253357 255 103 103
0.119204267859459 0.0853404328227043 3.23800015449524 254 101 101
0.128172859549522 0.0854178816080093 3.24100017547607 255 109 107
0.13732647895813 0.0856006443500519 3.2480001449585 255 109 106
0.146022647619247 0.0854933857917786 3.24400019645691 255 110 106
0.154791846871376 0.0854387134313583 3.24200010299683 243 97 90
0.207484126091003 0.0852402225136757 3.2350001335144 254 128 105
0.215918004512787 0.0850794240832329 3.22900009155273 246 119 100
0.224527090787888 0.0849975571036339 3.2260000705719 242 112 96
0.233697533607483 0.0851263776421547 3.23100018501282 253 120 107
0.242819309234619 0.0852287262678146 3.2350001335144 255 123 115
0.251728624105453 0.0852519348263741 3.23600006103516 255 116 111
0.260159343481064 0.085116982460022 3.23100018501282 255 115 110
0.268644958734512 0.0850082635879517 3.22700023651123 255 117 110
0.277279704809189 0.0849521458148956 3.22500014305115 255 122 117
0.286346077919006 0.0850276350975037 3.22800016403198 255 119 120
0.29570198059082 0.0851820334792137 3.23400020599365 255 126 120
0.304712861776352 0.0852309763431549 3.23600006103516 255 132 126
0.313345968723297 0.0851744562387466 3.23400020599365 255 133 127
0.321668207645416 0.085038848221302 3.22900009155273 255 126 120
0.33078071475029 0.0851138383150101 3.23200011253357 255 127 123
0.339698195457459 0.0851360335946083 3.23300004005432 255 124 120
0.348512142896652 0.0851318314671516 3.23300004005432 255 135 131
0.356993228197098 0.085048533976078 3.23000025749207 255 128 126
0.365796506404877 0.085044153034687 3.23000025749207 255 136 136
0.374482423067093 0.0850133448839188 3.22900009155273 255 139 139
0.383636385202408 0.0850877612829208 3.23200011253357 255 142 141
0.392441093921661 0.0850831121206284 3.23200011253357 254 137 134
0.401989310979843 0.0852363109588623 3.23800015449524 255 142 139
0.410427004098892 0.0851525142788887 3.2350001335144 255 143 140
0.419106155633926 0.085121288895607 3.23400020599365 255 142 136
0.427646070718765 0.085063673555851 3.23200011253357 255 141 138
0.437119007110596 0.0851901993155479 3.23700022697449 255 146 145
0.446479946374893 0.0852903202176094 3.24100017547607 255 159 152
0.0836716145277023 0.0763756558299065 3.23300004005432 251 119 121
0.0923952683806419 0.0762801244854927 3.22900009155273 250 109 110
0.101128026843071 0.0762081146240234 3.2260000705719 253 100 100
0.109775818884373 0.0760887712240219 3.22100019454956 254 104 101
0.118616707623005 0.0761110484600067 3.22200012207031 255 109 106
0.127383500337601 0.0760859921574593 3.22100019454956 255 106 102
0.136355713009834 0.0761789306998253 3.22500014305115 255 111 107
0.14503413438797 0.076106421649456 3.22200012207031 252 104 97
0.153934314846992 0.0761519223451614 3.2240002155304 250 109 88
0.162743851542473 0.076150082051754 3.2240002155304 255 255 158
0.171446323394775 0.0761009007692337 3.22200012207031 255 255 130
0.180360943078995 0.0761460959911346 3.2240002155304 253 255 112
0.18905109167099 0.0760967284440994 3.22200012207031 255 255 119
0.197913751006126 0.076118104159832 3.22300004959106 255 255 126
0.206396326422691 0.0759976953268051 3.21800017356873 255 255 128
0.21505132317543 0.0759480446577072 3.21600008010864 255 255 136
0.223625004291534 0.0758746787905693 3.21300005912781 255 255 147
0.232832387089729 0.0760137513279915 3.21900010108948 255 255 147
0.241696327924728 0.0760346651077271 3.22000026702881 245 237 125
0.250642567873001 0.0760790854692459 3.22200012207031 223 199 111
0.259035140275955 0.0759581327438354 3.21700024604797 250 125 105
0.267649203538895 0.0759079307317734 3.21500015258789 242 115 95
0.276337265968323 0.0758812502026558 3.21400022506714 255 129 121
0.285373687744141 0.0759489238262177 3.21700024604797 251 120 116
0.294608235359192 0.0760637074708939 3.22200012207031 255 123 117
0.303492337465286 0.0760839730501175 3.22300004959106 255 129 121
0.312477648258209 0.076127752661705 3.22500014305115 255 130 124
0.320974618196487 0.0760534182190895 3.22200012207031 255 125 121
0.330068141222 0.0761206299066544 3.22500014305115 255 128 124
0.338021010160446 0.0759281292557716 3.21700024604797 249 116 112
0.34646800160408 0.0758535638451576 3.21400022506714 254 123 121
0.354676336050034 0.0757317245006561 3.20900011062622 255 130 128
0.36376217007637 0.0757986083626747 3.21200013160706 255 131 129
0.372515082359314 0.0757946148514748 3.21200013160706 255 137 137
0.381385445594788 0.0758141428232193 3.21300005912781 255 142 142
0.390624195337296 0.075904369354248 3.21700024604797 255 136 133
0.399635046720505 0.0759473219513893 3.21900010108948 255 143 142
0.408528566360474 0.0759666189551353 3.22000026702881 255 146 145
0.417426139116287 0.0759858265519142 3.22100019454956 255 141 135
0.426195412874222 0.0759813711047173 3.22100019454956 255 142 136
0.435098230838776 0.0760004296898842 3.22200012207031 255 144 138
0.4437295794487 0.0759722515940666 3.22100019454956 255 148 142
0.451792120933533 0.0758496671915054 3.21600008010864 255 158 151
0.0925965905189514 0.067598782479763 3.23600006103516 255 125 129
0.101003766059875 0.067305326461792 3.22200012207031 244 93 93
0.109333962202072 0.0670117810368538 3.20800018310547 255 112 109
0.118028983473778 0.0669688284397125 3.20600008964539 255 107 103
0.126870781183243 0.067009337246418 3.20800018310547 255 105 101
0.1355961561203 0.0669870972633362 3.20700025558472 255 108 104
0.144315510988235 0.0669647604227066 3.20600008964539 255 111 104
0.153124302625656 0.0669841095805168 3.20700025558472 246 110 88
0.161937966942787 0.0670033767819405 3.20800018310547 255 255 147
0.170756444334984 0.0670225471258163 3.20900011062622 255 255 128
0.179523766040802 0.0670207515358925 3.20900011062622 255 255 106
0.187938287854195 0.0668935552239418 3.20300006866455 255 255 110
0.196564972400665 0.0668498277664185 3.20100021362305 255 255 119
0.205308198928833 0.0668477788567543 3.20100021362305 255 255 119
0.214318111538887 0.0669291839003563 3.20500016212463 255 255 113
0.223001003265381 0.0669060721993446 3.20400023460388 255 255 111
0.231749907135963 0.0669037699699402 3.20400023460388 255 255 117
0.240648031234741 0.0669431462883949 3.20600008964539 255 255 119
0.249400600790977 0.0669406801462173 3.20600008964539 255 255 118
0.258071660995483 0.0669172555208206 3.20500016212463 255 255 146
0.283957362174988 0.0668256208300591 3.20100021362305 251 238 154
0.293056905269623 0.0669062584638596 3.20500016212463 224 136 100
0.302083045244217 0.0669659450650215 3.20800018310547 255 130 122
0.310833722352982 0.0669629201292992 3.20800018310547 255 124 118
0.319483667612076 0.0669389516115189 3.20700025558472 255 123 119
0.328433990478516 0.0669775232672691 3.20900011062622 255 121 117
0.336658537387848 0.066869929432869 3.20400023460388 253 118 116
0.344854563474655 0.0667622610926628 3.19900012016296 255 128 129
0.353243142366409 0.0666962787508965 3.19600009918213 255 127 125
0.362180382013321 0.066734567284584 3.19800019264221 253 124 122
0.371243178844452 0.0667936503887177 3.20100021362305 255 131 131
0.380083590745926 0.0668109133839607 3.2020001411438 255 136 136
0.389292448759079 0.0668907165527344 3.20600008964539 255 132 132
0.39777684211731 0.0668452680110931 3.20400023460388 255 131 131
0.406502664089203 0.0668414682149887 3.20400023460388 255 142 143
0.415486335754395 0.0668793246150017 3.20600008964539 255 139 136
0.424082487821579 0.0668545439839363 3.20500016212463 255 147 144
0.432941883802414 0.0668714120984077 3.20600008964539 255 145 139
0.441392004489899 0.0668256655335426 3.20400023460388 255 145 138
0.450251221656799 0.0668424069881439 3.20500016212463 255 149 141
0.457825571298599 0.0666714236140251 3.19700026512146 255 158 155
0.101036086678505 0.0585149005055428 3.22300004959106 244 124 117
0.108994200825691 0.0580600798130035 3.19800019264221 246 105 102
0.117441073060036 0.057913813740015 3.19000005722046 254 102 98
0.126318320631981 0.0579853355884552 3.19400024414063 255 103 99
0.134963229298592 0.0579478517174721 3.19200015068054 255 103 99
0.143776744604111 0.0579829141497612 3.19400024414063 255 114 105
0.152457311749458 0.0579634197056293 3.19300007820129 255 138 115
0.161283284425735 0.0579983294010162 3.19500017166138 255 255 131
0.169906705617905 0.0579605400562286 3.19300007820129 255 255 109
0.178630366921425 0.0579589828848839 3.19300007820129 255 255 101
0.187059968709946 0.0578666031360626 3.18800020217896 255 255 111
0.195768550038338 0.0578649006783962 3.18800020217896 255 255 112
0.204476341605186 0.0578631162643433 3.18800020217896 255 255 113
0.21345080435276 0.0579338707029819 3.19200015068054 254 255 111
0.221959099173546 0.0578774996101856 3.18900012969971 255 255 105
0.230522453784943 0.057839211076498 3.18700003623962 255 255 110
0.239374250173569 0.0578734390437603 3.18900012969971 255 255 115
0.248313844203949 0.0579257532954216 3.19200015068054 255 255 117
0.257107824087143 0.0579416863620281 3.19300007820129 255 255 131
0.265656501054764 0.0579031184315681 3.19100022315979 255 255 139
0.274279236793518 0.0578826293349266 3.19000005722046 255 255 143
0.282984167337418 0.0578802190721035 3.19000005722046 255 255 150
0.292053818702698 0.0579503104090691 3.19400024414063 247 125 104
0.300673335790634 0.0579296201467514 3.19300007820129 251 119 111
0.30918937921524 0.0578907169401646 3.19100022315979 255 123 119
0.317892670631409 0.0578880421817303 3.19100022315979 255 123 119
0.326901793479919 0.0579397156834602 3.19400024414063 255 119 118
0.335505783557892 0.0579187646508217 3.19300007820129 255 119 118
0.343456268310547 0.0577889233827591 3.18600010871887 255 121 122
0.3515884578228 0.0576953142881393 3.18100023269653 255 130 128
0.360258340835571 0.0576923228800297 3.18100023269653 255 127 125
0.369970709085464 0.0578524991869926 3.19000005722046 255 133 133
0.379137367010117 0.0579219274222851 3.19400024414063 255 131 131
0.388203084468842 0.0579731576144695 3.19700026512146 251 126 126
0.395669758319855 0.0577885881066322 3.18700003623962 255 137 137
0.404983729124069 0.0578759647905827 3.19200015068054 255 133 133
0.413675576448441 0.0578726194798946 3.19200015068054 252 133 130
0.422630697488785 0.0579054839909077 3.19400024414063 255 140 137
0.43024480342865 0.0577570050954819 3.18600010871887 252 136 130
0.438915997743607 0.0577535033226013 3.18600010871887 255 145 139
0.448850244283676 0.0579130947589874 3.19500017166138 255 147 141
0.457829415798187 0.0579457357525826 3.19700026512146 255 149 145
0.466672122478485 0.0579601973295212 3.19800019264221 255 158 156
0.10926777869463 0.0494403950870037 3.20600008964539 228 113 113
0.117184348404408 0.0490848422050476 3.18300008773804 254 107 103
0.125567957758904 0.0489605478942394 3.17500019073486 255 103 99
0.134118720889091 0.0489132963120937 3.17200016975403 255 103 99
0.143012657761574 0.0489893294870853 3.17700004577637 251 105 97
0.160275012254715 0.0489561818540096 3.17500019073486 255 255 115
0.169056683778763 0.04898576810956 3.17700004577637 255 255 107
0.177568912506104 0.0489382036030293 3.17400026321411 255 255 112
0.186181351542473 0.0489214062690735 3.17300009727478 255 255 111
0.194726213812828 0.0488891340792179 3.17100024223328 255 255 114
0.203644201159477 0.0489492975175381 3.17500019073486 255 255 113
0.212449491024017 0.0489785633981228 3.17700004577637 254 255 111
0.221125662326813 0.0489769391715527 3.17700004577637 255 255 114
0.229584023356438 0.0489290058612823 3.17400026321411 255 255 116
0.238400369882584 0.0489580854773521 3.17600011825562 255 255 117
0.247304558753967 0.0490025281906128 3.17900013923645 255 255 122
0.25606307387352 0.0490160658955574 3.1800000667572 255 255 127
0.264493077993393 0.0489678978919983 3.17700004577637 255 255 132
0.272819757461548 0.0489042662084103 3.17300009727478 255 255 139
0.281567096710205 0.0489176400005817 3.17400026321411 245 240 129
0.290318787097931 0.0489309579133987 3.17500019073486 255 134 114
0.299074858427048 0.0489442087709904 3.17600011825562 255 127 119
0.307835310697556 0.0489574074745178 3.17700004577637 255 125 123
0.316500425338745 0.0489551387727261 3.17700004577637 255 116 115
0.324755012989044 0.0488911829888821 3.17300009727478 255 118 117
0.333091616630554 0.0488425865769386 3.17000007629395 255 126 125
0.341518521308899 0.0488093532621861 3.16800022125244 255 122 121
0.350375324487686 0.0488376915454865 3.17000007629395 255 128 126
0.359128564596176 0.0488505661487579 3.17100024223328 255 128 126
0.368813782930374 0.048986628651619 3.1800000667572 255 130 128
0.378190666437149 0.0490764155983925 3.18600010871887 255 132 132
0.387113183736801 0.049104530364275 3.18800020217896 255 132 132
0.394679576158524 0.0489631704986095 3.17900013923645 255 133 133
0.403591156005859 0.048991184681654 3.18100023269653 255 141 142
0.411734759807587 0.0489267520606518 3.17700004577637 255 135 135
0.420516699552536 0.0489392802119255 3.1780002117157 255 139 136
0.428627550601959 0.048874769359827 3.17400026321411 255 140 137
0.438230514526367 0.0489795915782452 3.18100023269653 255 143 136
0.449415504932404 0.0492537133395672 3.19900012016296 255 145 137
0.463131457567215 0.0497894920408726 3.23400020599365 249 147 139
0.471928954124451 0.0497863441705704 3.23400020599365 254 156 149
0.11744287610054 0.0404715575277805 3.19000005722046 208 98 100
0.125212877988815 0.0401663035154343 3.16600012779236 244 114 106
0.133400842547417 0.0400259420275688 3.15500020980835 255 111 99
0.142248407006264 0.0400885045528412 3.16000008583069 239 100 82
0.159518927335739 0.0400866158306599 3.16000008583069 255 255 114
0.168100029230118 0.0400729030370712 3.15900015830994 255 255 109
0.176675006747246 0.040059145539999 3.15800023078918 255 255 112
0.185537174344063 0.0401087515056133 3.16200017929077 254 255 110
0.194113448262215 0.0400948897004128 3.16100025177002 255 255 111
0.202811792492867 0.0401063449680805 3.16200017929077 255 255 111
0.211381003260612 0.0400923751294613 3.16100025177002 255 255 112
0.219943970441818 0.0400783605873585 3.16000008583069 255 255 116
0.228645250201225 0.0400896593928337 3.16100025177002 255 255 117
0.237050846219063 0.0400501824915409 3.15800023078918 255 255 120
0.24613930284977 0.0401247926056385 3.16400003433228 255 255 122
0.254695892333984 0.0401105768978596 3.16300010681152 255 255 124
0.263246119022369 0.0400963239371777 3.16200017929077 255 255 118
0.271531850099564 0.0400439761579037 3.15800023078918 255 255 134
0.280238300561905 0.0400549806654453 3.15900015830994 238 225 118
0.288857698440552 0.040053267031908 3.15900015830994 253 128 108
0.297570168972015 0.0400641784071922 3.16000008583069 254 120 114
0.306674629449844 0.0401257611811161 3.16500020027161 255 121 120
0.315307080745697 0.0401239022612572 3.16500020027161 255 123 122
0.323324233293533 0.0400459319353104 3.15900015830994 255 123 122
0.331622719764709 0.0400059595704079 3.1560001373291 255 121 117
0.340227067470551 0.0400039739906788 3.1560001373291 252 115 111
0.348830193281174 0.0400019437074661 3.1560001373291 255 125 123
0.357092320919037 0.0399618521332741 3.15300011634827 255 126 122
0.366380572319031 0.0400357842445374 3.15900015830994 255 126 124
0.375700294971466 0.0401096679270267 3.16500020027161 255 125 126
0.384687095880508 0.0401454828679562 3.16800022125244 255 130 132
0.392819762229919 0.040092546492815 3.16400003433228 255 133 133
0.401944369077683 0.0401409566402435 3.16800022125244 255 136 133
0.410182148218155 0.0401006229221821 3.16500020027161 255 138 139
0.419328421354294 0.0401489436626434 3.16900014877319 252 139 142
0.427954941987991 0.0401465408504009 3.16900014877319 248 142 142
0.438508719205856 0.0403214581310749 3.18300008773804 250 154 153
0.125767275691032 0.0316500328481197 3.1800000667572 185 86 77
0.133528456091881 0.0314304307103157 3.15800023078918 252 117 104
0.141799047589302 0.0313501320779324 3.15000009536743 244 110 92
0.150120824575424 0.0312897004187107 3.14400005340576 255 251 133
0.15851017832756 0.0312491301447153 3.14000010490417 255 255 116
0.167196348309517 0.031268235296011 3.14200019836426 255 255 113
0.175780862569809 0.0312673971056938 3.14200019836426 255 255 111
0.184599369764328 0.0313063189387321 3.14600014686584 255 255 113
0.192947760224342 0.0312655977904797 3.14200019836426 255 255 113
0.201594233512878 0.0312745831906796 3.14300012588501 255 255 115
0.210312217473984 0.0312934853136539 3.14500021934509 255 255 114
0.219040334224701 0.0313123464584351 3.1470000743866 255 255 116
0.22763380408287 0.0313112623989582 3.1470000743866 255 255 119
0.235926166176796 0.0312703475356102 3.14300012588501 255 255 120
0.245129331946373 0.0313487835228443 3.15100026130676 255 255 130
0.253569960594177 0.0313276909291744 3.14900016784668 255 255 119
0.262248456478119 0.0313364043831825 3.15000009536743 255 255 110
0.270415544509888 0.031285397708416 3.14500021934509 255 255 138
0.278909116983414 0.031274139881134 3.14400005340576 225 196 117
0.287304759025574 0.0312529057264328 3.14200019836426 255 126 113
0.296065092086792 0.0312714204192162 3.14400005340576 255 113 108
0.305029004812241 0.0313097909092903 3.14800024032593 252 112 107
0.313515484333038 0.0312983952462673 3.1470000743866 255 118 115
0.32168835401535 0.0312571302056313 3.14300012588501 255 116 113
0.330783903598785 0.0313053354620934 3.14800024032593 255 122 119
0.339582085609436 0.0313236676156521 3.15000009536743 255 122 121
0.347947835922241 0.0313021950423718 3.14800024032593 255 120 117
0.355848371982574 0.0312409084290266 3.14200019836426 255 118 117
0.364990741014481 0.0312889702618122 3.1470000743866 255 118 117
0.374159067869186 0.0313369929790497 3.15200018882751 255 122 123
0.383717626333237 0.031414806842804 3.16000008583069 252 123 131
0.392325162887573 0.0314130485057831 3.16000008583069 255 133 138
0.401312053203583 0.0314410850405693 3.16300010681152 255 139 140
0.409665882587433 0.0314193889498711 3.16100025177002 255 149 163
0.418668985366821 0.0314473547041416 3.16400003433228 239 140 155
0.134501531720161 0.0229627639055252 3.18100023269653 228 113 102
0.141934677958488 0.0227601453661919 3.15300011634827 245 124 107
0.157905086874962 0.0225786175578833 3.12800025939941 255 255 139
0.166398823261261 0.0225708186626434 3.12700009346008 255 255 124
0.174886465072632 0.0225629955530167 3.12600016593933 255 255 122
0.183719977736473 0.022598447278142 3.13100004196167 255 255 122
0.192027419805527 0.0225689113140106 3.12700009346008 255 255 112
0.200761243700981 0.0225898697972298 3.13000011444092 255 255 116
0.20931002497673 0.022589148953557 3.13000011444092 255 255 121
0.217788398265839 0.0225811824202538 3.12900018692017 255 255 115
0.22626043856144 0.022573184221983 3.12800025939941 255 255 119
0.234576001763344 0.022550730034709 3.12500023841858 255 255 125
0.243652254343033 0.0226004086434841 3.132000207901 255 255 128
0.252121597528458 0.0225923303514719 3.13100004196167 255 255 121
0.260584473609924 0.0225842241197824 3.13000011444092 255 255 110
0.269126892089844 0.022583307698369 3.13000011444092 255 255 130
0.286117196083069 0.0225741788744926 3.12900018692017 253 114 105
0.2946537733078 0.0225731860846281 3.12900018692017 255 113 108
0.303479909896851 0.0225938037037849 3.132000207901 255 113 108
0.312122017145157 0.0225999727845192 3.13300013542175 255 113 110
0.32066610455513 0.0225988961756229 3.13300013542175 250 105 102
0.329419195652008 0.0226122252643108 3.13500022888184 255 123 118
0.337858527898788 0.022603889927268 3.1340000629425 255 125 120
0.346291244029999 0.0225955303758383 3.13300013542175 252 114 115
0.354603946208954 0.0225799363106489 3.13100004196167 253 116 121
0.36429625749588 0.0226508565247059 3.14100003242493 247 127 128
0.37380439043045 0.0227073226124048 3.14900016784668 239 132 148
0.149548918008804 0.0140457134693861 3.132000207901 225 97 91
0.157350242137909 0.0139781031757593 3.11700010299683 244 112 96
0.165654346346855 0.0139598110690713 3.11300015449524 255 132 102
0.208575010299683 0.0139846559613943 3.11900019645691 255 255 128
0.216953754425049 0.0139752235263586 3.11700010299683 255 255 123
0.225465387105942 0.0139747420325875 3.11700010299683 255 255 111
0.233901098370552 0.0139697594568133 3.11600017547607 255 255 105
0.242563813924789 0.0139782084152102 3.11800003051758 255 255 115
0.25083389878273 0.0139642264693975 3.11500024795532 255 255 116
0.259336411952972 0.0139636769890785 3.11500024795532 255 255 112
0.268009871244431 0.0139720737934113 3.11700010299683 255 255 132
0.285020709037781 0.0139708910137415 3.11700010299683 255 115 108
0.293524563312531 0.0139702754095197 3.11700010299683 255 119 114
0.302221119403839 0.0139786070212722 3.11900019645691 255 113 116
0.310827791690826 0.0139824394136667 3.12000012397766 255 113 115
0.319541186094284 0.0139907393604517 3.12200021743774 253 107 109
0.328474372625351 0.0140079818665981 3.12600016593933 255 117 116
0.337212651968002 0.0140162482857704 3.12800025939941 255 124 128
0.346071094274521 0.0140289785340428 3.13100004196167 243 120 127
0.355171173810959 0.0140506522729993 3.13600015640259 225 117 137
0.150599613785744 0.00552184646949172 3.15400004386902 174 55 60
0.157552406191826 0.00546393916010857 3.12100005149841 252 113 112
0.165494933724403 0.00544454203918576 3.1100001335144 247 104 93
0.173488587141037 0.00542864063754678 3.1010000705719 251 108 96
0.182019129395485 0.00543023785576224 3.10200023651123 248 110 97
0.190615832805634 0.00543357850983739 3.10400009155273 237 99 84
0.199286878108978 0.0054386630654335 3.10700011253357 235 106 84
0.207639127969742 0.00543498899787664 3.10500025749207 218 125 78
0.224525392055511 0.00543286977335811 3.10400009155273 250 231 129
0.233150824904442 0.00543617643415928 3.10600018501282 255 254 132
0.241475030779839 0.00543247442692518 3.10400009155273 255 255 139
0.249867990612984 0.00543051725253463 3.10300016403198 255 255 137
0.258171230554581 0.00542680313810706 3.1010000705719 255 255 120
0.266892462968826 0.00543183228000999 3.10400009155273 255 255 152
0.284015297889709 0.00543487211689353 3.10600018501282 253 113 108
0.292771637439728 0.00543988170102239 3.10900020599365 251 110 109
0.301349461078644 0.00544138485565782 3.1100001335144 245 104 111
0.310529381036758 0.00545337982475758 3.11700010299683 249 117 127
0.16554819047451 -0.00305827683769166 3.11100006103516 235 114 109
0.173208877444267 -0.00304344901815057 3.09600019454956 254 113 110
0.181256353855133 -0.00303648272529244 3.08900022506714 252 100 96
0.189756140112877 -0.00303737609647214 3.09000015258789 254 102 96
0.19832481443882 -0.00303924875333905 3.09200024604797 255 106 102
0.206636056303978 -0.00303718540817499 3.09000015258789 255 111 105
0.215005233883858 -0.00303610158152878 3.08900022506714 255 106 96
0.223729759454727 -0.00303992768749595 3.09300017356873 248 102 95
0.232400193810463 -0.00304276775568724 3.09600019454956 240 98 91
0.240385979413986 -0.00303675862960517 3.09000015258789 242 107 95
0.248740673065186 -0.00303565990179777 3.08900022506714 239 112 92
0.257255494594574 -0.0030365230049938 3.09000015258789 220 111 93
0.274919480085373 -0.00304511631838977 3.0990002155304 233 111 98
0.28364959359169 -0.00304793333634734 3.10200023651123 249 116 112
0.292677521705627 -0.00305369403213263 3.10800004005432 255 131 135
0.173320576548576 -0.0115142073482275 3.09800004959106 236 120 113
0.180786713957787 -0.0114507004618645 3.08100008964539 253 107 100
0.188834771513939 -0.0114280646666884 3.07500004768372 255 105 101
0.197298318147659 -0.0114314295351505 3.07600021362305 255 105 101
0.205632761120796 -0.0114273484796286 3.07500004768372 255 108 104
0.214100137352943 -0.0114306835457683 3.07600021362305 251 99 95
0.222644492983818 -0.0114377206191421 3.07800006866455 255 108 105
0.231349050998688 -0.0114521766081452 3.08200025558472 255 117 116
0.239841118454933 -0.0114554679021239 3.08300018310547 255 122 121
0.248418301343918 -0.0114624612033367 3.08500003814697 241 108 106
0.25742170214653 -0.0114880176261067 3.09200024604797 233 128 144
0.180903628468513 -0.0198856368660927 3.08300018310547 234 114 117
0.188711479306221 -0.0198205523192883 3.07300019264221 243 104 105
0.197041243314743 -0.0198134928941727 3.07200002670288 249 106 105
0.20543161034584 -0.0198128595948219 3.07200002670288 236 94 97
