0.297766983509064 0.370270073413849 3.70100021362305 255 170 158
0.307861179113388 0.370256453752518 3.70100021362305 255 167 153
0.318126052618027 0.370442450046539 3.70300006866455 255 172 152
0.32848933339119 0.370728045701981 3.70600008964539 255 172 152
0.338502377271652 0.370613157749176 3.70500016212463 255 173 150
0.348696947097778 0.370697885751724 3.70600008964539 255 174 151
0.277662932872772 0.360303372144699 3.7020001411438 255 159 151
0.287373721599579 0.359804302453995 3.69700026512146 255 158 149
0.296734273433685 0.358915448188782 3.68800020217896 255 159 144
0.306211084127426 0.358220964670181 3.68100023269653 255 164 147
0.316078186035156 0.358012676239014 3.67900013923645 255 167 147
0.326465129852295 0.358387917280197 3.68300008773804 255 167 147
0.337146759033203 0.359054565429688 3.69000005722046 255 172 150
0.347112685441971 0.358942419290543 3.68900012969971 255 171 149
0.378402084112167 0.359965741634369 3.70000028610229 255 174 151
0.235407367348671 0.347510308027267 3.67300009727478 250 157 154
0.245365053415298 0.347405225038528 3.67200016975403 240 131 127
0.255455523729324 0.347488939762115 3.67300009727478 255 149 143
0.265767306089401 0.347856044769287 3.67700028419495 255 149 139
0.2760249376297 0.348128080368042 3.6800000667572 255 152 140
0.286064714193344 0.34811595082283 3.6800000667572 255 155 143
0.295459806919098 0.347346693277359 3.67200016975403 255 156 141
0.304893374443054 0.346671670675278 3.66500020027161 255 155 140
0.314545392990112 0.346280068159103 3.66100025177002 255 159 147
0.324794948101044 0.346550196409225 3.66400027275085 255 164 149
0.335333824157715 0.347103625535965 3.67000007629395 255 164 147
0.345339685678482 0.347089201211929 3.67000007629395 255 171 151
0.355441153049469 0.347168982028961 3.67100024223328 255 170 153
0.366144120693207 0.347815811634064 3.6780002117157 255 174 154
0.376065790653229 0.347705692052841 3.67700028419495 255 169 149
0.386190682649612 0.347784280776978 3.6780002117157 255 170 148
0.224532589316368 0.336216330528259 3.65900015830994 239 128 124
0.234007477760315 0.335471481084824 3.65100026130676 253 141 135
0.244172781705856 0.335736960172653 3.6540002822876 255 143 136
0.254353612661362 0.336002022027969 3.65700006484985 255 145 138
0.264549881219864 0.336266696453094 3.66000008583069 253 140 129
0.274536520242691 0.336255311965942 3.66000008583069 255 149 138
0.285221815109253 0.337070375680923 3.66900014877319 255 149 137
0.295633286237717 0.337517529726028 3.67400026321411 255 150 136
0.305239021778107 0.337045639753342 3.66900014877319 253 149 134
0.314214944839478 0.335930377244949 3.65700006484985 255 152 140
0.32409942150116 0.335825264453888 3.6560001373291 255 154 142
0.334251374006271 0.335995316505432 3.65800023078918 253 156 139
0.344413101673126 0.33616504073143 3.66000008583069 254 159 142
0.354294002056122 0.336058765649796 3.65900015830994 255 166 149
0.364367306232452 0.336135894060135 3.66000008583069 255 165 145
0.375160783529282 0.336855500936508 3.66800022125244 255 168 148
0.384526520967484 0.336289048194885 3.66200017929077 254 167 145
0.394396841526031 0.336181402206421 3.66100025177002 255 169 147
0.194519951939583 0.32617262005806 3.65800023078918 246 151 156
0.203948587179184 0.325272679328918 3.64800024032593 251 144 140
0.213615000247955 0.324818164110184 3.64300012588501 251 140 132
0.223621532320976 0.324898242950439 3.64400029182434 255 138 131
0.233248114585876 0.324442952871323 3.63900017738342 255 141 134
0.24324743449688 0.324522256851196 3.64000010490417 255 144 137
0.253738254308701 0.325225234031677 3.64800024032593 255 142 135
0.263621211051941 0.325125426054001 3.6470000743866 255 144 134
0.273122698068619 0.324579536914825 3.64100027084351 255 143 132
0.28367879986763 0.325281262397766 3.64900016784668 255 151 141
0.294518947601318 0.326250016689301 3.66000008583069 255 144 134
0.30500203371048 0.326772630214691 3.66600012779236 255 145 135
0.313712298870087 0.325423061847687 3.65100026130676 255 151 143
0.323226153850555 0.32496452331543 3.64600014686584 255 154 146
0.333168476819992 0.32495129108429 3.64600014686584 255 158 146
0.343109577894211 0.324937641620636 3.64600014686584 255 158 143
0.352274894714355 0.324210792779922 3.63800024986267 255 161 146
0.362291306257248 0.324285626411438 3.63900017738342 255 162 145
0.372516542673111 0.324538379907608 3.64200019836426 255 164 145
0.382861793041229 0.324879854917526 3.64600014686584 254 163 143
0.392150193452835 0.324329942464828 3.64000010490417 255 171 149
0.402398616075516 0.32458159327507 3.64300012588501 255 173 151
0.202894687652588 0.313677996397018 3.62900018692017 176 82 84
0.2129787504673 0.3139289021492 3.632000207901 250 145 141
0.222894251346588 0.313920080661774 3.632000207901 255 144 141
0.232744857668877 0.313824445009232 3.63100028038025 255 141 135
0.242321759462357 0.313382744789124 3.62600016593933 255 139 132
0.252218276262283 0.313372820615768 3.62600016593933 255 139 132
0.261969298124313 0.313189685344696 3.62400007247925 254 139 129
0.271783471107483 0.313092619180679 3.6230001449585 255 142 132
0.282057642936707 0.313513666391373 3.62800025939941 255 144 134
0.292679935693741 0.314279973506927 3.63700008392334 255 147 137
0.303100645542145 0.314786642789841 3.64300012588501 255 147 137
0.312092214822769 0.313823997974396 3.632000207901 254 143 133
0.321554601192474 0.313379526138306 3.62700009346008 250 140 130
0.33107990026474 0.313021153211594 3.6230001449585 255 150 138
0.341617435216904 0.313612729310989 3.63000011444092 255 153 138
0.350739389657974 0.312908113002777 3.62200021743774 255 159 144
0.360712587833405 0.312980711460114 3.6230001449585 255 159 143
0.370689898729324 0.313052952289581 3.62400007247925 255 162 143
0.380671411752701 0.31312483549118 3.62500023841858 255 164 145
0.390118390321732 0.312764555215836 3.62100028991699 255 169 147
0.399652659893036 0.312490314245224 3.61800026893616 255 169 147
0.410074710845947 0.312906742095947 3.6230001449585 255 170 148
0.232754111289978 0.303918063640594 3.63100028038025 243 148 153
0.242264524102211 0.303406566381454 3.62500023841858 248 141 139
0.251602202653885 0.302727341651917 3.61700010299683 255 144 143
0.260823011398315 0.301964163780212 3.6080002784729 255 139 136
0.270818889141083 0.302121222019196 3.6100001335144 255 141 135
0.281057924032211 0.302528977394104 3.61500024795532 255 145 138
0.291162312030792 0.302769035100937 3.61800026893616 255 142 135
0.301115572452545 0.302841305732727 3.61900019645691 255 143 133
0.310557544231415 0.302411139011383 3.61400008201599 255 146 136
0.320325791835785 0.302315413951874 3.61300015449524 255 145 134
0.330178827047348 0.302303016185761 3.61300015449524 255 145 134
0.340124756097794 0.302373945713043 3.61400008201599 255 149 135
0.34949392080307 0.301942586898804 3.60900020599365 255 151 136
0.35953152179718 0.302096545696259 3.61100006103516 255 159 144
0.369271963834763 0.30199921131134 3.6100001335144 255 157 141
0.379530668258667 0.302319794893265 3.61400008201599 255 161 144
0.38916340470314 0.302138149738312 3.61200022697449 255 167 148
0.398342072963715 0.301621645689011 3.60600018501282 255 167 147
0.408165842294693 0.301606744527817 3.60600018501282 253 166 144
0.417640417814255 0.301340639591217 3.60300016403198 255 170 148
0.428165018558502 0.301826924085617 3.60900020599365 255 174 151
0.251333624124527 0.29253476858139 3.61300015449524 254 152 155
0.26032692193985 0.291553497314453 3.6010000705719 255 161 155
0.270078986883163 0.291462540626526 3.60000014305115 255 143 139
0.280368894338608 0.291937977075577 3.60600018501282 255 148 141
0.290288090705872 0.292008250951767 3.60700011253357 255 142 135
0.300045251846313 0.291916310787201 3.60600018501282 255 142 132
0.309366196393967 0.291419237852097 3.60000014305115 255 146 135
0.319096595048904 0.291326612234116 3.5990002155304 255 149 138
0.328180611133575 0.290667116641998 3.59100008010864 255 151 140
0.337596327066422 0.290331065654755 3.58700013160706 255 152 138
0.347279578447342 0.290237545967102 3.5860002040863 255 153 141
0.358250498771667 0.291195869445801 3.59800028800964 255 151 139
0.368262648582459 0.291344463825226 3.60000014305115 254 152 137
0.378389418125153 0.29157367348671 3.60300016403198 255 160 145
0.38799250125885 0.291398018598557 3.6010000705719 255 158 143
0.397251933813095 0.290979236364365 3.59600019454956 255 160 143
0.406822323799133 0.290802955627441 3.59400010108948 255 168 151
0.41545307636261 0.289979159832001 3.58400011062622 255 172 152
0.280145972967148 0.281864374876022 3.60300016403198 255 165 160
0.289654910564423 0.281541138887405 3.5990002155304 255 149 141
0.299390584230423 0.281452268362045 3.59800028800964 255 148 134
0.30851811170578 0.280815482139587 3.59000015258789 255 144 134
0.31804421544075 0.280569553375244 3.58700013160706 255 146 135
0.327461421489716 0.280245155096054 3.58300018310547 255 147 136
0.33610263466835 0.279294729232788 3.57100009918213 254 143 132
0.346226781606674 0.27959543466568 3.57500028610229 255 153 141
0.35667023062706 0.280130386352539 3.58200025558472 255 151 139
0.366945952177048 0.280508637428284 3.58700013160706 255 150 138
0.375987350940704 0.279948174953461 3.58000016212463 255 157 145
0.385959059000015 0.280091196298599 3.58200025558472 255 156 141
0.39571937918663 0.280077546834946 3.58200025558472 255 163 146
0.405591517686844 0.280141800642014 3.58300018310547 253 159 140
0.414076596498489 0.279267579317093 3.57200026512146 253 162 142
0.424398750066757 0.279644042253494 3.5770001411438 255 170 148
0.433897107839584 0.279472947120667 3.57500028610229 255 171 148
0.289745718240738 0.271796077489853 3.60000014305115 255 158 161
0.298985123634338 0.271257281303406 3.59300017356873 255 151 140
0.307669639587402 0.270265311002731 3.58000016212463 252 143 131
0.316636741161346 0.269574999809265 3.57100009918213 254 138 131
0.325370818376541 0.268733501434326 3.56000018119812 255 141 134
0.334608465433121 0.268344670534134 3.5550000667572 255 145 135
0.344301879405975 0.268332958221436 3.5550000667572 255 151 143
0.354491978883743 0.268698394298553 3.56000018119812 255 147 139
0.364196538925171 0.26868611574173 3.56000018119812 255 148 140
0.374214887619019 0.268899917602539 3.56300020217896 255 150 140
0.384356051683426 0.269188940525055 3.56700015068054 255 159 147
0.393965274095535 0.269100308418274 3.56600022315979 255 160 145
0.40356770157814 0.269011437892914 3.56500005722046 255 161 142
0.412119895219803 0.268243163824081 3.5550000667572 243 156 134
0.422870635986328 0.268908321857452 3.56400012969971 253 171 148
0.29916188120842 0.26159805059433 3.59500026702881 158 60 53
0.306906700134277 0.259841442108154 3.57100009918213 255 169 161
0.315140157938004 0.258594006299973 3.55400013923645 255 149 145
0.32465073466301 0.258437782526016 3.55200028419495 255 148 142
0.333960950374603 0.258135735988617 3.54800009727478 255 148 140
0.343151301145554 0.25776070356369 3.54300022125244 255 145 137
0.35171565413475 0.256948918104172 3.53200006484985 255 144 136
0.361958026885986 0.257373631000519 3.53800010681152 255 149 141
0.372651904821396 0.258088916540146 3.54800009727478 255 147 139
0.382752507925034 0.258367508649826 3.55200028419495 255 151 139
0.392431646585464 0.258354872465134 3.55200028419495 255 154 142
0.333312958478928 0.247964039444923 3.54100012779236 255 150 143
0.341612786054611 0.246972844004631 3.52700018882751 255 148 142
0.350532114505768 0.246471613645554 3.52000021934509 255 144 138
0.360844373703003 0.246950432658195 3.52700018882751 253 141 135
0.371718674898148 0.247778981924057 3.53900027275085 250 140 132
0.381148427724838 0.247627034783363 3.53700017929077 255 149 139
0.390565901994705 0.247474849224091 3.53500008583069 255 156 146
0.400310814380646 0.247532427310944 3.53600025177002 248 156 126
0.33332347869873 0.23830072581768 3.54100012779236 186 86 89
0.341526687145233 0.237280875444412 3.52600026130676 255 166 168
0.350144803524017 0.236597269773483 3.51600027084351 255 152 148
0.35962787270546 0.236519038677216 3.51500010490417 255 151 147
0.369839519262314 0.236911594867706 3.52100014686584 255 151 143
0.379543751478195 0.236967474222183 3.5220000743866 255 148 140
0.38936260342598 0.237090349197388 3.52400016784668 254 146 136
0.3990778028965 0.237145707011223 3.52500009536743 255 154 133
0.358820199966431 0.226410567760468 3.507000207901 255 170 173
0.368905246257782 0.22672264277935 3.51200008392334 255 152 150
0.37836965918541 0.226647138595581 3.51100015640259 254 149 145
0.387274831533432 0.226248636841774 3.50500011444092 255 150 142
0.396372348070145 0.225979045033455 3.50100016593933 255 153 141
0.406258314847946 0.226161032915115 3.50400018692017 255 157 138
0.377087265253067 0.21632419526577 3.49900007247925 255 168 169
0.385849475860596 0.215880736708641 3.49200010299683 255 154 146
0.394911795854568 0.215622544288635 3.48800015449524 255 153 142
0.404298782348633 0.215549618005753 3.48700022697449 254 153 141
0.38497605919838 0.20587845146656 3.48400020599365 255 172 164
0.394243270158768 0.205749839544296 3.48200011253357 255 153 145
0.40291839838028 0.205325618386269 3.47500014305115 253 152 141
0.409784585237503 0.194592490792274 3.45300006866455 255 173 157
0.571610510349274 0.195123016834259 3.46600008010864 255 171 153
0.436738073825836 0.184602662920952 3.44300007820129 237 151 137
0.45258417725563 0.174068108201027 3.42100024223328 254 157 148
0.461085200309753 0.173752620816231 3.41500020027161 255 161 145
0.470929354429245 0.173945769667625 3.41900014877319 255 157 141
0.480512917041779 0.174036994576454 3.42100024223328 255 161 145
0.490678429603577 0.174331516027451 3.42700004577637 255 157 142
0.499416172504425 0.174117237329483 3.42300009727478 255 156 141
0.508576333522797 0.174055397510529 3.42200016975403 255 156 145
0.51772940158844 0.173993408679962 3.42100024223328 238 152 128
0.527645826339722 0.17418560385704 3.42500019073486 239 158 121
0.452197104692459 0.164589017629623 3.41800022125244 175 83 85
0.460420101881027 0.164194136857986 3.41000008583069 255 173 168
0.468735665082932 0.163847297430038 3.40300011634827 255 155 147
0.477994918823242 0.163837358355522 3.40300011634827 255 158 147
0.488254845142365 0.164164274930954 3.41000008583069 255 155 144
0.497384071350098 0.164105921983719 3.40900015830994 255 154 146
0.506209135055542 0.16395115852356 3.4060001373291 255 154 146
0.515621483325958 0.163988798856735 3.40700006484985 251 159 150
0.46874526143074 0.154562264680862 3.40300011634827 254 155 153
0.47631910443306 0.154007896780968 3.39100027084351 255 159 155
0.486546486616135 0.154316291213036 3.39800024032593 250 145 141
0.495497345924377 0.154215857386589 3.39600014686584 255 153 148
0.50428706407547 0.154069870710373 3.39300012588501 255 174 171
0.485553473234177 0.144746690988541 3.39100027084351 250 157 162
