-0.300598233938217 0.293624877929688 3.41900014877319 255 248 134
-0.290654093027115 0.292948335409164 3.41100025177002 248 123 96
-0.281164884567261 0.292700856924057 3.40800023078918 231 97 89
-0.273127228021622 0.293999046087265 3.42300009727478 159 68 66
-0.601723909378052 0.282065182924271 3.3970000743866 178 81 84
-0.593259394168854 0.282414436340332 3.40100026130676 228 132 123
-0.58065003156662 0.280770570039749 3.38100004196167 247 146 134
-0.572204232215881 0.281119525432587 3.38500022888184 255 168 147
-0.565565288066864 0.282381951808929 3.40000009536743 255 161 145
-0.557207584381104 0.282813847064972 3.40500020980835 255 146 132
-0.547051012516022 0.282331883907318 3.39900016784668 255 143 129
-0.537242114543915 0.282015889883041 3.39500021934509 255 143 128
-0.528230965137482 0.282115012407303 3.39600014686584 255 147 132
-0.521658718585968 0.283543258905411 3.41300010681152 255 141 127
-0.511990427970886 0.283309817314148 3.41000008583069 255 132 118
-0.503958761692047 0.283990114927292 3.41800022125244 254 123 111
-0.493132501840591 0.283091574907303 3.40700006484985 253 117 108
-0.48506310582161 0.283771574497223 3.41500020027161 255 119 112
-0.476113080978394 0.283952832221985 3.41700005531311 255 123 118
-0.466331154108047 0.283635288476944 3.41300010681152 255 117 112
-0.45549812912941 0.282652646303177 3.40100026130676 250 99 99
-0.44525358080864 0.282002121210098 3.39300012588501 255 110 110
-0.436850428581238 0.282514989376068 3.39900016784668 233 93 86
-0.420189023017883 0.283706367015839 3.41300010681152 255 255 144
-0.410716027021408 0.283553630113602 3.41100025177002 255 255 106
-0.401370376348495 0.28348383307457 3.41000008583069 255 255 96
-0.391683906316757 0.283164352178574 3.4060001373291 255 255 91
-0.381680965423584 0.282595127820969 3.39900016784668 255 255 90
-0.374454468488693 0.284104287624359 3.41700005531311 255 255 76
-0.366167515516281 0.284864962100983 3.42600011825562 255 255 88
-0.358039021492004 0.285791754722595 3.4370002746582 255 255 91
-0.347211748361588 0.284556329250336 3.42200016975403 255 255 85
-0.337254673242569 0.283985793590546 3.41500020027161 255 255 86
-0.327142328023911 0.283248603343964 3.4060001373291 255 255 87
-0.3180111348629 0.283342748880386 3.40700006484985 255 255 87
-0.308782875537872 0.283353477716446 3.40700006484985 255 255 101
-0.298850268125534 0.282698541879654 3.39900016784668 255 255 143
-0.28887477517128 0.281960099935532 3.39000010490417 239 105 83
-0.27902963757515 0.281304538249969 3.382000207901 255 113 109
-0.615315854549408 0.270752757787704 3.37100005149841 255 156 135
-0.603528738021851 0.269564628601074 3.35600018501282 255 162 133
-0.596958160400391 0.270705729722977 3.37000012397766 255 163 132
-0.590833961963654 0.272087872028351 3.38700008392334 255 159 126
-0.579636216163635 0.271140277385712 3.37500023841858 255 159 130
-0.570023119449615 0.270915448665619 3.37200021743774 254 153 124
-0.562088370323181 0.271493971347809 3.37900018692017 255 156 135
-0.554114520549774 0.272072404623032 3.38600015640259 253 144 124
-0.544331014156342 0.271766901016235 3.382000207901 255 145 127
-0.534725964069366 0.271541506052017 3.37900018692017 255 145 125
-0.525602459907532 0.271557033061981 3.37900018692017 255 141 124
-0.517853140830994 0.272295743227005 3.38800024986267 255 136 119
-0.509603500366211 0.2727932035923 3.39400005340576 255 130 116
-0.499993026256561 0.272567182779312 3.39100027084351 255 123 111
-0.491989612579346 0.273225128650665 3.39900016784668 255 119 111
-0.482947409152985 0.273320287466049 3.40000009536743 255 118 113
-0.474177062511444 0.273576021194458 3.40300011634827 255 117 112
-0.464979320764542 0.273590385913849 3.40300011634827 255 114 116
-0.454173117876053 0.272639781236649 3.39100027084351 255 107 107
-0.443299144506454 0.271608412265778 3.37800025939941 255 104 104
-0.426539748907089 0.272600471973419 3.39000010490417 255 255 147
-0.417740106582642 0.27285498380661 3.39300012588501 255 255 123
-0.408682227134705 0.272948503494263 3.39400005340576 255 255 107
-0.398793756961823 0.27247878909111 3.38800024986267 255 255 97
-0.388706594705582 0.27184796333313 3.38000011444092 255 255 90
-0.37944757938385 0.271779894828796 3.37900018692017 255 255 92
-0.372275024652481 0.27323979139328 3.3970000743866 255 255 86
-0.36425569653511 0.274136573076248 3.40800023078918 255 255 87
-0.355863153934479 0.274791777133942 3.41600012779236 255 255 82
-0.345498323440552 0.273918360471725 3.40500020980835 255 255 83
-0.335488229990005 0.273285955190659 3.3970000743866 255 255 78
-0.325232297182083 0.272411853075027 3.38600015640259 255 255 83
-0.316154986619949 0.272502928972244 3.38700008392334 255 255 82
-0.306799322366714 0.272352337837219 3.38500022888184 255 255 95
-0.297541499137878 0.27228194475174 3.3840000629425 195 182 46
-0.287435919046402 0.271406620740891 3.3730001449585 251 97 93
-0.277966558933258 0.271094232797623 3.36900019645691 254 96 99
-0.269475519657135 0.271747171878815 3.37700009346008 240 118 119
-0.610038757324219 0.259381979703903 3.34200024604797 255 167 141
-0.600667595863342 0.259242832660675 3.34000015258789 255 164 128
-0.59414005279541 0.260345488786697 3.35400009155273 255 167 136
-0.585965752601624 0.26074954867363 3.35900020599365 255 165 134
-0.576217353343964 0.260454803705215 3.35500025749207 255 158 128
-0.566488921642303 0.260159909725189 3.3510000705719 255 159 129
-0.558943569660187 0.260874211788177 3.3600001335144 255 154 128
-0.550202608108521 0.261044919490814 3.36200022697449 255 150 126
-0.542254090309143 0.261603742837906 3.36900019645691 255 151 131
-0.533475279808044 0.261774182319641 3.37100005149841 255 145 125
-0.523284316062927 0.261245608329773 3.36400008201599 253 133 114
-0.515575468540192 0.261959403753281 3.3730001449585 254 128 114
-0.507065832614899 0.262284815311432 3.37700009346008 255 129 117
-0.49779599905014 0.262221693992615 3.37600016593933 255 119 111
-0.48910927772522 0.262469112873077 3.37900018692017 255 116 111
-0.480973184108734 0.263027101755142 3.38600015640259 255 119 116
-0.472240507602692 0.263274192810059 3.38900017738342 255 112 111
-0.461987286806107 0.262666583061218 3.38100004196167 255 112 115
-0.451775997877121 0.262058705091476 3.3730001449585 255 116 111
-0.442000389099121 0.261683613061905 3.36800026893616 255 153 105
-0.433921426534653 0.262318432331085 3.37600016593933 255 255 148
-0.424665540456772 0.262253761291504 3.37500023841858 255 255 124
-0.415290683507919 0.262111186981201 3.3730001449585 255 255 114
-0.405564159154892 0.261735200881958 3.36800026893616 255 255 109
-0.39609894156456 0.26151442527771 3.36500024795532 255 255 102
-0.386878728866577 0.261448830366135 3.36400008201599 255 255 113
-0.377887398004532 0.261538445949554 3.36500024795532 255 255 101
-0.370314180850983 0.262638300657272 3.37900018692017 255 255 101
-0.361595183610916 0.262960702180862 3.38300013542175 255 255 87
-0.352436691522598 0.262971967458725 3.38300013542175 255 255 70
-0.343277096748352 0.262982994318008 3.38300013542175 255 255 79
-0.333326309919357 0.262371838092804 3.37500023841858 255 255 79
-0.324090182781219 0.262304604053497 3.37400007247925 255 255 85
-0.314391732215881 0.261848360300064 3.36800026893616 255 255 88
-0.305359184741974 0.261936038732529 3.36900019645691 255 229 136
-0.295616865158081 0.261401534080505 3.36200022697449 228 89 60
-0.286252319812775 0.261177688837051 3.35900020599365 255 93 102
-0.277563214302063 0.261575609445572 3.36400008201599 251 82 91
-0.268367260694504 0.261506766080856 3.36300015449524 255 95 100
-0.259715527296066 0.261981964111328 3.36900019645691 255 108 112
-0.599064707756042 0.249531298875809 3.33100008964539 255 158 137
-0.591852843761444 0.250295847654343 3.34100008010864 255 165 138
-0.584236860275269 0.250910580158234 3.3490002155304 255 166 133
-0.574687004089355 0.250701069831848 3.34600019454956 255 159 129
-0.563968479633331 0.249966889619827 3.3360002040863 255 155 125
-0.555631637573242 0.250281572341919 3.34000015258789 255 149 123
-0.547926485538483 0.250895917415619 3.34800004959106 254 144 120
-0.539371907711029 0.251135498285294 3.3510000705719 255 146 125
-0.52985018491745 0.250925242900848 3.34800004959106 255 142 121
-0.520187854766846 0.250639885663986 3.34400010108948 255 136 117
-0.511157155036926 0.250654190778732 3.34400010108948 255 131 115
-0.503926932811737 0.251567840576172 3.35600018501282 255 131 118
-0.495303511619568 0.251806735992432 3.35900020599365 255 120 111
-0.48738631606102 0.252420336008072 3.36700010299683 251 111 106
-0.478714227676392 0.25265896320343 3.37000012397766 255 110 107
-0.469467252492905 0.252597540616989 3.36900019645691 255 112 109
-0.458038091659546 0.251336246728897 3.35200023651123 255 111 113
-0.448306798934937 0.250974386930466 3.34700012207031 253 116 107
-0.423419982194901 0.252362489700317 3.36500024795532 255 255 133
-0.412963807582855 0.25154983997345 3.35400009155273 255 255 118
-0.403890579938889 0.251561969518662 3.35400009155273 255 255 112
-0.394933849573135 0.251648902893066 3.35500025749207 255 255 111
-0.385395437479019 0.251360535621643 3.3510000705719 255 255 113
-0.376663655042648 0.251597076654434 3.35400009155273 255 255 100
-0.367585688829422 0.251608341932297 3.35400009155273 255 255 91
-0.35861349105835 0.25169438123703 3.35500025749207 255 255 91
-0.348801255226135 0.251180022954941 3.34800004959106 255 255 73
-0.340953886508942 0.252090930938721 3.3600001335144 255 255 80
-0.33254662156105 0.252626478672028 3.36700010299683 255 255 86
-0.323043763637543 0.252336472272873 3.36300015449524 255 255 91
-0.313654839992523 0.252121269702911 3.3600001335144 255 255 114
-0.303556054830551 0.251305460929871 3.3490002155304 223 111 58
-0.294746935367584 0.251539945602417 3.35200023651123 255 102 92
-0.285238802433014 0.251173824071884 3.34700012207031 253 82 90
-0.276416897773743 0.251407772302628 3.35000014305115 255 89 98
-0.267019242048264 0.251116186380386 3.34600019454956 255 93 97
-0.25771951675415 0.250899314880371 3.34300017356873 255 93 96
-0.248509496450424 0.250757247209549 3.34100008010864 255 111 113
-0.599799394607544 0.240806475281715 3.33500027656555 255 163 152
-0.592399477958679 0.241471290588379 3.34400010108948 255 160 133
-0.582507371902466 0.241125047206879 3.33900022506714 255 164 128
-0.572812557220459 0.240850910544395 3.33500027656555 255 160 127
-0.561278283596039 0.239782109856606 3.32000017166138 253 150 120
-0.552152693271637 0.239724278450012 3.31900024414063 255 151 123
-0.544504106044769 0.240316390991211 3.3270001411438 255 153 125
-0.536328077316284 0.240691766142845 3.33200025558472 255 148 123
-0.526382744312286 0.240272343158722 3.32600021362305 255 142 118
-0.516623973846436 0.239924997091293 3.32100009918213 254 134 115
-0.508419513702393 0.240299955010414 3.32600021362305 251 125 109
-0.500637233257294 0.240891546010971 3.33400011062622 255 125 111
-0.492515474557877 0.241338551044464 3.34000015258789 255 122 115
-0.484504699707031 0.241857692599297 3.34700012207031 255 116 109
-0.476028621196747 0.242159947752953 3.3510000705719 255 112 107
-0.466554075479507 0.241956144571304 3.34800004959106 255 113 110
-0.455864667892456 0.24110172688961 3.3360002040863 255 108 104
-0.445774585008621 0.240536138415337 3.32800006866455 255 110 106
-0.438220083713531 0.24134361743927 3.33900022506714 250 103 99
-0.430476367473602 0.242078721523285 3.3490002155304 244 100 83
-0.4204121530056 0.241512522101402 3.34100008010864 255 141 116
-0.393415153026581 0.241619870066643 3.34200024604797 255 255 157
-0.383566647768021 0.241125017404556 3.33500027656555 255 255 149
-0.375102549791336 0.241497576236725 3.34000015258789 255 255 131
-0.365404635667801 0.241074547171593 3.33400011062622 255 255 101
-0.356593281030655 0.241229802370071 3.3360002040863 255 255 87
-0.346415489912033 0.240444734692574 3.32500004768372 255 255 88
-0.338528752326965 0.241250365972519 3.3360002040863 255 255 92
-0.330976366996765 0.242345094680786 3.3510000705719 255 255 96
-0.321996927261353 0.242427200078964 3.35200023651123 255 255 121
-0.302386999130249 0.241288706660271 3.3360002040863 255 95 92
-0.293612867593765 0.241514727473259 3.33900022506714 248 83 84
-0.284480571746826 0.241451144218445 3.33800005912781 252 85 84
-0.275517851114273 0.241532027721405 3.33900022506714 255 90 88
-0.265750676393509 0.240889221429825 3.33000016212463 255 84 82
-0.256571143865585 0.240752547979355 3.32800006866455 255 92 90
-0.246732071042061 0.239964500069618 3.31700015068054 255 103 103
-0.602152109146118 0.232684835791588 3.34800004959106 238 145 142
-0.589225292205811 0.2311702221632 3.32600021362305 255 157 136
-0.579730570316315 0.230975940823555 3.32300019264221 255 157 124
-0.570078730583191 0.230712026357651 3.31900024414063 255 157 128
-0.559094667434692 0.22989185154438 3.30700016021729 255 156 127
-0.548673033714294 0.229279980063438 3.29800009727478 255 153 127
-0.540262758731842 0.229502245783806 3.30100011825562 255 152 126
-0.531512856483459 0.229585334658623 3.30200004577637 255 152 128
-0.52133184671402 0.229042515158653 3.29400014877319 255 146 125
-0.51150381565094 0.228638544678688 3.28800010681152 255 132 113
-0.504152715206146 0.229347065091133 3.29800009727478 255 132 118
-0.497046649456024 0.230194628238678 3.31000018119812 251 120 108
-0.488842070102692 0.230555266141891 3.31500005722046 255 127 119
-0.479740589857101 0.230498462915421 3.31400012969971 255 118 113
-0.471069395542145 0.230650171637535 3.31600022315979 255 118 113
-0.462525486946106 0.230871334671974 3.31900024414063 255 117 114
-0.453007400035858 0.230605334043503 3.31500005722046 255 116 112
-0.444179445505142 0.230687007308006 3.31600022315979 255 111 111
-0.436001092195511 0.231116369366646 3.32200026512146 255 104 106
-0.428174585103989 0.231754317879677 3.33100008964539 255 104 100
-0.418033003807068 0.231139734387398 3.32200026512146 255 107 101
-0.407815903425217 0.230455338954926 3.3120002746582 251 104 93
-0.398494571447372 0.230257749557495 3.30900025367737 235 88 76
-0.391071885824203 0.231173396110535 3.32200026512146 226 94 54
-0.381392300128937 0.230766639113426 3.31600022315979 223 130 76
-0.363990366458893 0.231135621666908 3.32100009918213 249 239 128
-0.355427742004395 0.231424197554588 3.32500004768372 255 255 132
-0.345279514789581 0.230668559670448 3.31400012969971 255 255 112
-0.336204558610916 0.230608716607094 3.31300020217896 255 255 109
-0.328022927045822 0.231175109744072 3.32100009918213 255 255 127
-0.310406237840652 0.231472030282021 3.32500004768372 230 118 62
-0.300945609807968 0.231132820248604 3.32000017166138 255 97 98
-0.292742222547531 0.231768041849136 3.32900023460388 255 91 95
-0.283466339111328 0.231567621231079 3.32600021362305 255 89 88
-0.274288326501846 0.231436550617218 3.32400012016296 255 90 88
-0.264322131872177 0.230608969926834 3.3120002746582 255 90 88
-0.254882723093033 0.230198860168457 3.30600023269653 255 86 84
-0.245846897363663 0.230136647820473 3.3050000667572 253 88 89
-0.23624224960804 0.229517132043839 3.29600024223328 255 102 105
-0.585164606571198 0.220631971955299 3.3030002117157 255 159 151
-0.575382828712463 0.220311611890793 3.29800009727478 255 157 128
-0.567344307899475 0.220659166574478 3.3030002117157 255 154 129
-0.557755768299103 0.220405355095863 3.29900026321411 253 149 123
-0.547688364982605 0.219950973987579 3.29200005531311 255 154 125
-0.537002742290497 0.219229131937027 3.2810001373291 255 154 126
-0.527662813663483 0.219041675329208 3.27800011634827 255 153 127
-0.518337786197662 0.218854039907455 3.27500009536743 255 149 128
-0.50980544090271 0.219000443816185 3.27700018882751 255 138 121
-0.502331078052521 0.219614520668983 3.28600025177002 255 136 122
-0.495107173919678 0.220362201333046 3.29700016975403 255 128 116
-0.485610395669937 0.22010725736618 3.29300022125244 255 122 117
-0.47627866268158 0.219918936491013 3.29000020027161 255 120 115
-0.467530161142349 0.219997838139534 3.29100012779236 255 116 111
-0.459471702575684 0.220410838723183 3.29700016975403 253 106 103
-0.451106160879135 0.220690026879311 3.30100011825562 255 112 109
-0.442181974649429 0.220701664686203 3.30100011825562 255 106 104
-0.433912664651871 0.221047401428223 3.30600023269653 255 105 103
-0.425743758678436 0.221459925174713 3.3120002746582 255 106 109
-0.415401667356491 0.220735460519791 3.30100011825562 252 92 95
-0.405241072177887 0.220077678561211 3.29100012779236 255 98 103
-0.395976364612579 0.219887733459473 3.28800010681152 255 107 105
-0.388728082180023 0.22083455324173 3.30200004577637 255 100 91
-0.379562497138977 0.220711156725883 3.30000019073486 255 96 94
-0.371529698371887 0.221256405115128 3.30800008773804 255 102 105
-0.362904399633408 0.221467047929764 3.31100010871887 252 98 92
-0.354261785745621 0.221677526831627 3.31400012969971 254 103 93
-0.343830496072769 0.220750585198402 3.30000019073486 241 88 80
-0.333676934242249 0.219957187771797 3.28800010681152 249 98 90
-0.325068920850754 0.220166996121407 3.29100012779236 255 123 106
-0.317116111516953 0.220844954252243 3.30100011825562 255 96 90
-0.308267861604691 0.220920577645302 3.30200004577637 255 89 97
-0.299503833055496 0.221062883734703 3.30400013923645 255 89 97
-0.290376245975494 0.220937356352806 3.30200004577637 255 95 100
-0.281855165958405 0.221279993653297 3.30700016021729 255 96 98
-0.272810906171799 0.221220955252647 3.30600023269653 255 94 93
-0.263850957155228 0.221228554844856 3.30600023269653 255 86 88
-0.254427522420883 0.22083443403244 3.30000019073486 255 83 85
-0.244887009263039 0.220306202769279 3.29200005531311 250 76 78
-0.236105784773827 0.220446929335594 3.29400014877319 255 92 96
-0.226485341787338 0.219784319400787 3.28400015830994 255 93 97
-0.573651552200317 0.210743397474289 3.28800010681152 255 168 146
-0.564609229564667 0.210692271590233 3.28700017929077 255 162 133
-0.555401861667633 0.210576921701431 3.28500008583069 255 158 131
-0.544872939586639 0.209948599338531 3.27500009536743 255 161 134
-0.533905684947968 0.20912778377533 3.26200008392334 255 160 134
-0.524456024169922 0.20888377726078 3.25800013542175 255 153 129
-0.516451120376587 0.20921665430069 3.26300024986267 255 149 127
-0.508573293685913 0.20961357653141 3.26900005340576 255 147 127
-0.500356078147888 0.209882169961929 3.27300024032593 254 132 118
-0.491665422916412 0.209958270192146 3.27400016784668 249 122 110
-0.484000205993652 0.210483133792877 3.28200006484985 254 117 112
-0.473974257707596 0.20998178422451 3.27400016784668 255 121 116
-0.46555295586586 0.21018573641777 3.27700018882751 255 113 110
-0.456696003675461 0.210197135806084 3.27700018882751 255 107 107
-0.448111116886139 0.210336685180664 3.27900004386902 255 104 104
-0.440451860427856 0.21092514693737 3.28800010681152 254 101 101
-0.432217597961426 0.21125690639019 3.29300022125244 255 100 103
-0.423697948455811 0.211460173130035 3.29600024223328 255 96 99
-0.413650691509247 0.210893407464027 3.28700017929077 251 91 94
-0.40365082025528 0.210326373577118 3.27800011634827 253 93 94
-0.394782453775406 0.210336655378342 3.27800011634827 255 100 101
-0.386619210243225 0.210731729865074 3.28400015830994 255 100 98
-0.377847254276276 0.210805833339691 3.28500008583069 253 94 101
-0.368619412183762 0.210623040795326 3.28200006484985 255 96 101
-0.360831558704376 0.211274340748787 3.29200005531311 255 94 92
-0.352240145206451 0.211476251482964 3.29500007629395 255 98 95
-0.342485278844833 0.210971966385841 3.28700017929077 246 82 79
-0.332569658756256 0.210339069366455 3.27700018882751 255 92 89
-0.323398560285568 0.210155248641968 3.27400016784668 255 90 89
-0.315011262893677 0.210484728217125 3.27900004386902 254 89 90
-0.306969255208969 0.211070820689201 3.28800010681152 255 93 102
-0.298424273729324 0.211335748434067 3.29200005531311 253 86 94
-0.28888925909996 0.210894286632538 3.28500008583069 255 93 98
-0.279646903276443 0.210645213723183 3.2810001373291 255 89 93
-0.270755410194397 0.210652694106102 3.2810001373291 252 82 86
-0.262182235717773 0.210916802287102 3.28500008583069 255 83 89
-0.253123939037323 0.210795447230339 3.28300023078918 255 84 90
-0.244001194834709 0.210609659552574 3.28000020980835 255 86 90
-0.234893888235092 0.210423618555069 3.27700018882751 255 91 95
-0.225733071565628 0.210173115134239 3.27300024032593 250 88 91
-0.216195687651634 0.209537103772163 3.26300024986267 246 104 107
-0.562045276165009 0.200872793793678 3.2720000743866 251 166 138
-0.5515256524086 0.200271144509315 3.26200008392334 255 161 136
-0.541890621185303 0.199976325035095 3.257000207901 255 161 134
-0.532444894313812 0.199742764234543 3.25300025939941 255 157 131
-0.523663222789764 0.199754655361176 3.25300025939941 255 156 132
-0.515038549900055 0.19982784986496 3.25400018692017 255 154 130
-0.507185041904449 0.200208023190498 3.26000022888184 255 147 127
-0.498074740171433 0.200096756219864 3.25800013542175 255 145 128
-0.488823741674423 0.199923932552338 3.25500011444092 255 126 116
-0.481209814548492 0.200426623225212 3.26300024986267 247 111 103
-0.472103625535965 0.200314939022064 3.26100015640259 255 118 113
-0.463006913661957 0.200203120708466 3.2590000629425 254 110 105
-0.453919798135757 0.200091153383255 3.257000207901 255 108 105
-0.446755468845367 0.200839146971703 3.26900005340576 255 106 104
-0.438051342964172 0.200911208987236 3.27000021934509 255 106 106
-0.430653154850006 0.201597556471825 3.2810001373291 255 104 107
-0.421651631593704 0.201546490192413 3.28000020980835 255 102 107
-0.412150830030441 0.201249420642853 3.27500009536743 254 94 97
-0.402552664279938 0.200890690088272 3.26900005340576 255 98 101
-0.39419025182724 0.201146349310875 3.27300024032593 255 108 111
-0.385687232017517 0.201340392231941 3.27600026130676 255 98 99
-0.376591593027115 0.201226964592934 3.27400016784668 255 100 101
-0.366944074630737 0.20080603659153 3.26700019836426 255 100 101
-0.358648598194122 0.201122477650642 3.2720000743866 255 101 102
-0.350218087434769 0.201377287507057 3.27600026130676 255 98 97
-0.341452211141586 0.201447531580925 3.27700018882751 255 93 90
-0.331766396760941 0.200964316725731 3.26900005340576 255 93 90
-0.322616815567017 0.200788274407387 3.26600027084351 255 93 92
-0.3143470287323 0.201165303587914 3.2720000743866 255 90 91
-0.305950403213501 0.201480716466904 3.27700018882751 252 87 88
-0.297344326972961 0.201672971248627 3.28000020980835 255 88 89
-0.287489831447601 0.201004192233086 3.26900005340576 255 92 96
-0.278120160102844 0.200642630457878 3.26300024986267 255 91 95
-0.26902961730957 0.200465306639671 3.26000022888184 255 87 89
-0.260592997074127 0.200779721140862 3.26500010490417 255 83 89
-0.251897096633911 0.200909450650215 3.26700019836426 255 81 87
-0.242743119597435 0.200670003890991 3.26300024986267 255 90 94
-0.233825013041496 0.200614765286446 3.26200008392334 255 92 94
-0.224290817975998 0.20000584423542 3.25200009346008 255 95 99
-0.215141430497169 0.199704200029373 3.24700021743774 255 97 100
-0.547310709953308 0.18997198343277 3.23700022697449 255 159 138
-0.539573192596436 0.19033570587635 3.24300026893616 255 161 138
-0.530656099319458 0.190288484096527 3.24200010299683 255 155 129
-0.520616173744202 0.189830258488655 3.23400020599365 255 150 122
-0.511726140975952 0.189782798290253 3.23300004005432 254 147 121
-0.503306865692139 0.189911335706711 3.2350001335144 255 150 129
-0.495028406381607 0.190098464488983 3.23800015449524 255 141 121
-0.485080361366272 0.189639657735825 3.23000025749207 254 128 114
-0.477238923311234 0.19000269472599 3.23600006103516 253 122 110
-0.467626482248306 0.189661026000977 3.23000025749207 253 118 106
-0.459181696176529 0.189788937568665 3.23200011253357 255 123 118
-0.450446099042892 0.189799293875694 3.23200011253357 255 118 114
-0.443212598562241 0.19045552611351 3.24300026893616 255 112 112
-0.435516357421875 0.190935462713242 3.25100016593933 255 111 114
-0.427775651216507 0.191415324807167 3.2590000629425 255 105 112
-0.419347643852234 0.191601380705833 3.26200008392334 255 100 107
-0.409517824649811 0.191141173243523 3.25400018692017 255 95 102
-0.399237513542175 0.190445795655251 3.24200010299683 255 99 104
-0.390827417373657 0.190631344914436 3.24500012397766 255 102 109
-0.382517755031586 0.190875515341759 3.24900007247925 255 95 98
-0.37395516037941 0.191002056002617 3.25100016593933 255 101 104
-0.365380585193634 0.191128432750702 3.25300025939941 254 89 94
-0.357013255357742 0.191372156143188 3.257000207901 251 85 89
-0.348623156547546 0.191615715622902 3.26100015640259 255 91 95
-0.340210318565369 0.191859140992165 3.26500010490417 253 88 89
-0.330353826284409 0.191279679536819 3.25500011444092 255 94 93
-0.32124188542366 0.191111356019974 3.25200009346008 255 97 96
-0.312721699476242 0.191295474767685 3.25500011444092 255 94 95
-0.303810715675354 0.191244319081306 3.25400018692017 255 87 86
-0.295085489749908 0.19131051003933 3.25500011444092 254 85 84
-0.286002069711685 0.191141411662102 3.25200009346008 255 97 99
-0.276252061128616 0.190501883625984 3.24100017547607 255 88 87
-0.266725808382034 0.189979657530785 3.23200011253357 255 88 87
-0.257646501064301 0.189751103520393 3.22800016403198 255 84 88
-0.249513298273087 0.190227746963501 3.23600006103516 255 88 92
-0.24111270904541 0.190527901053429 3.24100017547607 255 85 89
-0.232110694050789 0.190357536077499 3.23800015449524 255 84 88
-0.223124131560326 0.190186947584152 3.2350001335144 254 82 86
-0.214086845517159 0.189957350492477 3.23100018501282 255 83 89
-0.205451786518097 0.190080285072327 3.23300004005432 255 87 93
-0.545800268650055 0.180703297257423 3.22800016403198 251 156 137
-0.537587761878967 0.180882275104523 3.23100018501282 255 160 133
-0.52853935956955 0.180781230330467 3.22900009155273 255 154 125
-0.519178330898285 0.180568113923073 3.22500014305115 253 148 118
-0.508729696273804 0.179962903261185 3.21400022506714 255 154 126
-0.501295030117035 0.180421441793442 3.22200012207031 255 146 122
-0.493357390165329 0.180711939930916 3.22700023651123 255 140 119
-0.48388946056366 0.180442303419113 3.22200012207031 255 141 125
-0.475037187337875 0.180396541953087 3.22100019454956 255 130 116
-0.465465068817139 0.180070593953133 3.21500015258789 255 125 112
-0.457060784101486 0.180192604660988 3.21700024604797 255 122 113
-0.448923021554947 0.180426508188248 3.22100019454956 255 111 104
-0.441309094429016 0.180884391069412 3.22900009155273 255 110 107
-0.433248817920685 0.181174114346504 3.23400020599365 255 102 102
-0.424766302108765 0.181295648217201 3.23600006103516 254 95 102
-0.415757656097412 0.181192964315414 3.23400020599365 251 89 98
-0.405374079942703 0.180473774671555 3.22100019454956 250 86 95
-0.396168023347855 0.18025866150856 3.21700024604797 255 98 105
-0.387704968452454 0.180379569530487 3.21900010108948 255 93 100
-0.380171924829483 0.180948674678802 3.22900009155273 255 95 100
-0.371893376111984 0.181181415915489 3.23300004005432 255 95 100
-0.363479614257813 0.181357949972153 3.23600006103516 253 86 94
-0.35526779294014 0.181646466255188 3.24100017547607 255 93 98
-0.345851808786392 0.181318312883377 3.2350001335144 255 90 94
-0.336779743432999 0.181158065795898 3.23200011253357 255 90 94
-0.327012449502945 0.180605292320251 3.22200012207031 253 86 87
-0.318483650684357 0.180724963545799 3.2240002155304 255 90 89
-0.309942990541458 0.180844455957413 3.2260000705719 254 87 88
-0.301857322454453 0.181244090199471 3.23300004005432 255 89 88
-0.292463541030884 0.180858716368675 3.2260000705719 255 88 87
-0.284162133932114 0.181145891547203 3.23100018501282 255 86 85
-0.275321185588837 0.181096494197845 3.23000025749207 255 89 88
-0.265659481287003 0.180486232042313 3.21900010108948 255 88 88
-0.25653538107872 0.180212140083313 3.21400022506714 255 85 87
-0.248517081141472 0.180722877383232 3.22300004959106 255 84 89
-0.240300327539444 0.181121304631233 3.23000025749207 255 86 91
-0.231184542179108 0.180846631526947 3.22500014305115 255 82 88
-0.222508907318115 0.180908218026161 3.2260000705719 255 88 94
-0.214092224836349 0.181193947792053 3.23100018501282 255 77 83
-0.205075651407242 0.180974736809731 3.22700023651123 254 83 91
-0.195654198527336 0.180362731218338 3.21600008010864 255 105 113
-0.187628656625748 0.181040450930595 3.22800016403198 195 84 88
-0.534936308860779 0.171280220150948 3.21500015258789 248 163 135
-0.525276184082031 0.170970946550369 3.20900011062622 255 162 126
-0.516452074050903 0.170927941799164 3.20800018310547 255 159 126
-0.506998836994171 0.170671671628952 3.20300006866455 255 152 124
-0.497726857662201 0.17046856880188 3.19900012016296 255 145 121
-0.491074204444885 0.171171277761459 3.21200013160706 255 146 125
-0.481196165084839 0.170754790306091 3.20400023460388 255 144 125
-0.472687363624573 0.17081780731678 3.20500016212463 255 135 116
-0.463592678308487 0.170667499303818 3.2020001411438 255 126 108
-0.455223441123962 0.170783594250679 3.20400023460388 251 113 98
-0.447260022163391 0.171059474349022 3.20900011062622 255 112 100
-0.438858479261398 0.171175360679626 3.2110002040863 255 111 103
-0.429908871650696 0.171077832579613 3.20900011062622 255 105 103
-0.421493947505951 0.171193465590477 3.2110002040863 255 95 106
-0.414095401763916 0.171735480427742 3.22100019454956 255 91 100
-0.404124408960342 0.171211034059525 3.2110002040863 255 98 107
-0.395068377256393 0.171059653162956 3.20800018310547 255 92 101
-0.385666012763977 0.170748099684715 3.2020001411438 255 98 107
-0.377825558185577 0.171129643917084 3.20900011062622 255 93 102
-0.368680745363235 0.170924454927444 3.20500016212463 255 93 100
-0.361241310834885 0.171519100666046 3.21600008010864 255 94 99
-0.352754592895508 0.171633616089821 3.21800017356873 255 89 93
-0.343935251235962 0.171587958931923 3.21700024604797 255 96 97
-0.334182322025299 0.171062082052231 3.20700025558472 255 96 97
-0.325294464826584 0.17096272110939 3.20500016212463 255 88 90
-0.316119998693466 0.170703157782555 3.20000004768372 255 87 89
-0.307932466268539 0.170976892113686 3.20500016212463 255 88 90
-0.299343317747116 0.171037077903748 3.20600008964539 255 95 97
-0.290657103061676 0.171043738722801 3.20600008964539 255 85 87
-0.281882017850876 0.170996889472008 3.20500016212463 254 82 84
-0.273708045482636 0.171323344111443 3.2110002040863 255 83 85
-0.26459276676178 0.17106269299984 3.20600008964539 255 87 92
-0.255423933267593 0.170748502016068 3.20000004768372 255 79 84
-0.246980726718903 0.170914337038994 3.20300006866455 255 79 84
-0.238594844937325 0.171133413910866 3.20700025558472 255 79 84
-0.229397848248482 0.170765265822411 3.20000004768372 255 80 86
-0.221755504608154 0.171570956707001 3.21500015258789 255 77 83
-0.213103368878365 0.171629384160042 3.21600008010864 255 80 86
-0.203873082995415 0.171207293868065 3.20800018310547 255 87 93
-0.194563776254654 0.170678243041039 3.19800019264221 255 87 95
-0.18606373667717 0.170842811465263 3.20100021362305 255 99 104
-0.52201247215271 0.161268472671509 3.18900012969971 255 162 126
-0.513403177261353 0.161278173327446 3.18900012969971 255 158 123
-0.504317760467529 0.161136090755463 3.18600010871887 255 151 121
-0.49586945772171 0.161196157336235 3.18700003623962 255 146 121
-0.488484799861908 0.16161023080349 3.19500017166138 255 148 124
-0.479253262281418 0.161417216062546 3.19100022315979 255 139 118
-0.470926910638809 0.161527588963509 3.19300007820129 255 140 121
-0.461575031280518 0.161283746361732 3.18800020217896 255 122 104
-0.454095959663391 0.16169747710228 3.19600009918213 255 122 107
-0.446432888507843 0.162060514092445 3.20300006866455 255 112 100
-0.436953961849213 0.161765709519386 3.19700026512146 255 109 105
-0.427640169858933 0.161521345376968 3.19200015068054 255 103 101
-0.418877243995667 0.161479234695435 3.19100022315979 255 100 103
-0.412175536155701 0.162246719002724 3.20600008964539 252 89 96
-0.403251796960831 0.162153765559196 3.20400023460388 249 83 92
-0.394214600324631 0.162010073661804 3.20100021362305 252 86 95
-0.384831011295319 0.161714360117912 3.19500017166138 255 99 108
-0.375831961631775 0.161570355296135 3.19200015068054 255 96 103
-0.366387873888016 0.161223709583282 3.18500018119812 255 91 98
-0.358777791261673 0.161686837673187 3.19400024414063 255 99 103
-0.350240856409073 0.161744877696037 3.19500017166138 255 97 98
-0.341590523719788 0.161752134561539 3.19500017166138 255 91 90
-0.332626461982727 0.161607354879379 3.19200015068054 253 86 85
-0.323474556207657 0.161361128091812 3.18700003623962 255 88 87
-0.314546346664429 0.161216035485268 3.18400025367737 255 92 91
-0.306113690137863 0.16132390499115 3.18600010871887 255 89 91
-0.297855973243713 0.161532923579216 3.19000005722046 255 87 91
-0.289484918117523 0.161691144108772 3.19300007820129 255 89 93
-0.281448483467102 0.162051782011986 3.20000004768372 255 93 97
-0.272776454687119 0.162057787179947 3.20000004768372 255 84 90
-0.264020979404449 0.162012964487076 3.19900012016296 255 87 92
-0.255190193653107 0.161917343735695 3.19700026512146 255 80 85
-0.246292307972908 0.161770880222321 3.19400024414063 253 76 81
-0.237484186887741 0.161674872040749 3.19200015068054 255 80 85
-0.228972911834717 0.161781296133995 3.19400024414063 255 87 92
-0.220863804221153 0.162191465497017 3.2020001411438 255 80 86
-0.212246760725975 0.162246912717819 3.20300006866455 255 79 84
-0.202987983822823 0.161795631051064 3.19400024414063 255 81 86
-0.194020673632622 0.161546751856804 3.18900012969971 255 89 95
-0.185719221830368 0.161854922771454 3.19500017166138 255 93 94
-0.17793869972229 0.162669524550438 3.2110002040863 238 105 113
-0.521694540977478 0.152535364031792 3.18700003623962 255 158 129
-0.511480689048767 0.152065932750702 3.17700004577637 255 152 126
-0.502427518367767 0.151931419968605 3.17400026321411 254 147 121
-0.492144465446472 0.151413828134537 3.16300010681152 255 153 129
-0.483601301908493 0.151422679424286 3.16300010681152 252 140 116
-0.474456161260605 0.151239931583405 3.15900015830994 255 138 117
-0.466363668441772 0.151392221450806 3.16200017929077 255 139 120
-0.45781934261322 0.15140075981617 3.16200017929077 254 124 106
-0.45097878575325 0.151983827352524 3.17400026321411 255 121 105
-0.44365382194519 0.152423143386841 3.18300008773804 255 118 105
-0.434365540742874 0.152191981673241 3.1780002117157 255 107 103
-0.424969047307968 0.151912778615952 3.17200016975403 255 108 106
-0.416653871536255 0.152016580104828 3.17400026321411 255 102 105
-0.409612327814102 0.152599230408669 3.18600010871887 255 100 105
-0.400994300842285 0.152607038617134 3.18600010871887 255 93 102
-0.39200559258461 0.152471005916595 3.18300008773804 255 95 104
-0.381225198507309 0.151616260409355 3.16500020027161 255 101 110
-0.371836245059967 0.151288285851479 3.15800023078918 254 88 97
-0.363519340753555 0.151391312479973 3.16000008583069 255 95 102
-0.356650799512863 0.152117058634758 3.17500019073486 255 99 104
-0.348713278770447 0.15241152048111 3.18100023269653 255 99 103
-0.341062933206558 0.152849614620209 3.19000005722046 255 97 96
-0.331799656152725 0.152568846940994 3.18400025367737 255 92 91
-0.322567760944366 0.152287885546684 3.1780002117157 254 87 88
-0.312972187995911 0.151815101504326 3.16800022125244 255 90 91
-0.304390579462051 0.151821330189705 3.16800022125244 255 94 95
-0.295994699001312 0.151923283934593 3.17000007629395 255 89 93
-0.287768393754959 0.15212094783783 3.17400026321411 255 94 98
-0.279519408941269 0.152318462729454 3.1780002117157 255 87 89
-0.271162569522858 0.152467891573906 3.18100023269653 251 79 81
-0.262293338775635 0.152329578995705 3.1780002117157 255 81 83
-0.253678947687149 0.152334913611412 3.1780002117157 254 78 80
-0.244755312800407 0.152148351073265 3.17400026321411 255 83 83
-0.23592683672905 0.152009516954422 3.17100024223328 255 88 88
-0.227472305297852 0.15211021900177 3.17300009727478 255 86 86
-0.219764903187752 0.152738109230995 3.18600010871887 255 83 83
-0.210992261767387 0.152646735310555 3.18400025367737 254 78 78
-0.202293246984482 0.152603134512901 3.18300008773804 255 84 84
-0.193294763565063 0.152319639921188 3.17700004577637 255 88 88
-0.18467690050602 0.152323618531227 3.17700004577637 255 88 86
-0.176280096173286 0.152519255876541 3.18100023269653 255 92 89
-0.171467140316963 0.164465710520744 3.4300000667572 158 43 64
-0.510523617267609 0.143189191818237 3.17100024223328 255 159 134
-0.501486539840698 0.143062278628349 3.16800022125244 255 158 129
-0.491219520568848 0.142573982477188 3.15700006484985 255 154 128
-0.481622219085693 0.142266169190407 3.15000009536743 251 139 115
-0.472211629152298 0.142003417015076 3.14400005340576 255 143 122
-0.464749604463577 0.14232774078846 3.15100026130676 255 140 121
-0.455366194248199 0.142064765095711 3.14500021934509 255 131 115
-0.448003083467484 0.142434075474739 3.15300011634827 255 124 108
-0.439759194850922 0.142532303929329 3.15500020980835 255 119 106
-0.432459980249405 0.142946660518646 3.16400003433228 252 105 102
-0.423101216554642 0.142683237791061 3.15800023078918 255 111 111
-0.414298683404922 0.142600402235985 3.1560001373291 255 98 101
-0.406148612499237 0.142743393778801 3.15900015830994 255 97 102
-0.39886212348938 0.143202573060989 3.16900014877319 255 97 104
-0.39004248380661 0.143119424581528 3.16700005531311 255 102 109
-0.379064291715622 0.14222264289856 3.1470000743866 255 105 112
-0.369959354400635 0.142003580927849 3.14200019836426 255 94 103
-0.361800730228424 0.142145976424217 3.14500021934509 255 94 103
-0.354860305786133 0.142785415053368 3.15900015830994 255 90 98
-0.346527516841888 0.142882391810417 3.16100025177002 254 88 93
-0.338610410690308 0.143160045146942 3.16700005531311 255 91 92
-0.329930305480957 0.143121153116226 3.16600012779236 255 94 95
-0.320645540952683 0.142810896039009 3.15900015830994 255 94 98
-0.311397612094879 0.142500430345535 3.15200018882751 254 86 90
-0.302763164043427 0.142461106181145 3.15100026130676 255 97 98
-0.29488006234169 0.142783313989639 3.15800023078918 255 90 91
-0.286776751279831 0.14301498234272 3.16300010681152 255 99 100
-0.27882131934166 0.143336966633797 3.17000007629395 255 91 90
-0.270230293273926 0.143342301249504 3.17000007629395 255 93 92
-0.261473268270493 0.143257036805153 3.16800022125244 255 85 85
-0.252566516399384 0.143081158399582 3.16400003433228 255 84 84
-0.243603512644768 0.142859905958176 3.15900015830994 255 87 87
-0.234964400529861 0.142819374799728 3.15800023078918 255 84 84
-0.226616635918617 0.142959594726563 3.16100025177002 255 86 84
-0.218872621655464 0.143506705760956 3.17300009727478 255 88 86
-0.209870025515556 0.143239602446556 3.16700005531311 255 83 81
-0.201153412461281 0.143153220415115 3.16500020027161 255 88 86
-0.192203566431999 0.142885759472847 3.15900015830994 255 87 85
-0.183576241135597 0.142844274640083 3.15800023078918 255 88 86
-0.175230771303177 0.143028780817986 3.16200017929077 255 87 82
-0.167758971452713 0.143982127308846 3.18300008773804 255 93 90
-0.510370910167694 0.134556695818901 3.17000007629395 245 161 145
-0.50070321559906 0.134267628192902 3.16300010681152 251 150 131
-0.48998287320137 0.133681267499924 3.14900016784668 255 152 128
-0.479642629623413 0.133179679512978 3.13700008392334 255 144 120
-0.470116913318634 0.132890209555626 3.13000011444092 255 139 119
-0.461365103721619 0.132812917232513 3.12800025939941 255 137 118
-0.45247808098793 0.13269305229187 3.12500023841858 255 141 121
-0.444742679595947 0.132912784814835 3.13000011444092 255 134 114
-0.436839610338211 0.133090004324913 3.1340000629425 255 123 116
-0.429870456457138 0.133564412593842 3.14500021934509 255 120 115
-0.420562982559204 0.133316770195961 3.13900017738342 255 107 107
-0.411811679601669 0.13323886692524 3.13700008392334 250 94 97
-0.404227197170258 0.133543133735657 3.14400005340576 255 98 102
-0.396477699279785 0.133804857730865 3.15000009536743 255 100 107
-0.388078838586807 0.133854106068611 3.15100026130676 255 101 108
-0.377023339271545 0.132968619465828 3.13000011444092 255 93 100
-0.368906259536743 0.133102536201477 3.13300013542175 255 89 98
-0.360656827688217 0.133193895220757 3.13500022888184 249 83 92
-0.353518724441528 0.133710011839867 3.1470000743866 255 94 102
-0.344779789447784 0.133631199598312 3.14500021934509 252 86 91
-0.33711975812912 0.13397715985775 3.15300011634827 254 88 92
-0.328268975019455 0.133855596184731 3.15000009536743 255 89 93
-0.318925887346268 0.133521422743797 3.14200019836426 255 91 96
-0.309822648763657 0.133272066712379 3.13600015640259 255 94 99
-0.301903992891312 0.13353256881237 3.14200019836426 255 93 97
-0.293298155069351 0.133495435118675 3.14100003242493 255 98 99
-0.284787446260452 0.133500680327415 3.14100003242493 255 94 93
-0.276451706886292 0.133590802550316 3.14300012588501 255 91 89
-0.268104195594788 0.133680790662766 3.14500021934509 255 92 90
-0.259909987449646 0.133855655789375 3.14900016784668 255 85 85
-0.251134425401688 0.133732810616493 3.14600014686584 255 86 86
-0.242297187447548 0.133567333221436 3.14200019836426 255 97 101
-0.233778417110443 0.133571743965149 3.14200019836426 255 90 94
-0.225402191281319 0.1336610019207 3.14400005340576 255 87 89
-0.217566192150116 0.134090259671211 3.15400004386902 255 94 93
-0.20874747633934 0.133924171328545 3.15000009536743 252 87 86
-0.200267493724823 0.133970528841019 3.15100026130676 255 92 89
-0.191051214933395 0.133506491780281 3.14000010490417 252 91 89
-0.182475313544273 0.133467495441437 3.13900017738342 238 76 77
-0.17395955324173 0.133470848202705 3.13900017738342 230 76 80
-0.167077079415321 0.134792193770409 3.17000007629395 215 86 86
-0.498811453580856 0.125221520662308 3.15100026130676 220 138 129
-0.489056885242462 0.12491101026535 3.14300012588501 255 153 125
-0.479650139808655 0.124679900705814 3.13700008392334 255 146 126
-0.46952348947525 0.124249920248985 3.12600016593933 255 139 120
-0.459897398948669 0.12393905967474 3.11800003051758 254 133 116
-0.451616555452347 0.12398586422205 3.11900019645691 255 138 124
-0.443328976631165 0.124032564461231 3.12000012397766 255 136 124
-0.435313373804092 0.124158695340157 3.1230001449585 255 124 117
-0.427690505981445 0.124404028058052 3.12900018692017 255 117 112
-0.418828099966049 0.124291434884071 3.12600016593933 255 109 109
-0.410768270492554 0.124417327344418 3.12900018692017 251 95 99
-0.40230530500412 0.124423809349537 3.12900018692017 255 104 111
-0.394092828035355 0.124509736895561 3.13100004196167 255 97 106
-0.385745286941528 0.124555811285973 3.132000207901 255 91 100
-0.376186460256577 0.124204054474831 3.1230001449585 255 96 105
-0.368323802947998 0.124408982694149 3.12800025939941 255 94 103
-0.359972685575485 0.124454729259014 3.12900018692017 255 91 100
-0.352064341306686 0.124659463763237 3.1340000629425 255 98 107
-0.343250811100006 0.124545872211456 3.13100004196167 255 94 103
-0.335200965404511 0.124710634350777 3.13500022888184 255 92 100
-0.326503038406372 0.124636590480804 3.13300013542175 254 87 95
-0.317307323217392 0.124363496899605 3.12600016593933 255 98 106
-0.308148503303528 0.124090254306793 3.11900019645691 253 87 92
-0.300371885299683 0.124373905360699 3.12600016593933 255 96 100
-0.292276114225388 0.124538064002991 3.13000011444092 253 88 89
-0.283704400062561 0.124503172934055 3.12900018692017 255 94 93
-0.274961292743683 0.124388568103313 3.12600016593933 255 96 93
-0.266659706830978 0.124472804367542 3.12800025939941 254 85 84
-0.258511453866959 0.124636493623257 3.132000207901 255 89 91
-0.250180959701538 0.124720454216003 3.1340000629425 251 81 85
-0.241221889853477 0.124485924839973 3.12800025939941 253 87 92
-0.232443302869797 0.124330826103687 3.12400007247925 253 87 92
-0.223972365260124 0.124334804713726 3.12400007247925 255 90 95
-0.216052547097206 0.124657049775124 3.132000207901 242 80 83
-0.207558408379555 0.1246607452631 3.132000207901 230 72 75
-0.199127078056335 0.124704115092754 3.13300013542175 208 89 86
-0.190567955374718 0.124667748808861 3.132000207901 197 102 97
-0.487352430820465 0.115987725555897 3.132000207901 250 139 129
-0.476599097251892 0.115439012646675 3.11700010299683 255 143 129
-0.467728048563004 0.115334637463093 3.11400008201599 255 139 122
-0.458429247140884 0.115119017660618 3.10800004005432 255 136 119
-0.450899302959442 0.115347824990749 3.11400008201599 255 132 120
-0.442056775093079 0.115243166685104 3.11100006103516 255 130 118
-0.433507889509201 0.115212522447109 3.1100001335144 255 116 111
-0.42551001906395 0.115329958498478 3.11300015449524 249 107 102
-0.417628645896912 0.115484371781349 3.11700010299683 255 109 109
-0.409724354743958 0.115638703107834 3.12100005149841 255 106 110
-0.400254309177399 0.115348324179649 3.11300015449524 254 95 102
-0.390826404094696 0.115057833492756 3.10500025749207 255 104 113
-0.381810039281845 0.114878363907337 3.10000014305115 250 86 95
-0.373301386833191 0.114847019314766 3.0990002155304 255 100 109
-0.366092324256897 0.115223251283169 3.10900020599365 255 97 106
-0.357447355985641 0.115154646337032 3.10700011253357 255 93 100
-0.349710881710052 0.115382470190525 3.11300015449524 255 101 108
-0.341173350811005 0.115350738167763 3.11200022697449 255 93 101
-0.333495557308197 0.115615427494049 3.11900019645691 252 85 93
-0.325153440237045 0.115657620131969 3.12000012397766 255 92 100
-0.316195875406265 0.115477293729782 3.11500024795532 255 93 98
-0.306671530008316 0.1150743663311 3.10400009155273 254 86 91
-0.298935413360596 0.115338660776615 3.11100006103516 255 94 98
-0.290506690740585 0.115343324840069 3.11100006103516 254 86 90
-0.281895667314529 0.115273714065552 3.10900020599365 254 87 88
-0.272590905427933 0.11490735411644 3.0990002155304 255 92 93
-0.264618098735809 0.115097030997276 3.10400009155273 255 91 95
-0.256864935159683 0.115397863090038 3.11200022697449 255 97 102
-0.248668402433395 0.115513183176517 3.11500024795532 241 76 83
-0.240223407745361 0.115517124533653 3.11500024795532 243 81 90
-0.231628715991974 0.115446761250496 3.11300015449524 255 121 129
-0.475076586008072 0.106649436056614 3.10700011253357 252 138 131
-0.466382622718811 0.106587007641792 3.10500025749207 255 135 125
-0.457550644874573 0.106490164995193 3.10200023651123 253 126 114
-0.449602395296097 0.106599226593971 3.10500025749207 255 130 120
-0.440357804298401 0.106399215757847 3.0990002155304 255 126 118
-0.431841284036636 0.106370784342289 3.09800004959106 255 125 120
-0.423328995704651 0.106342263519764 3.09700012207031 248 104 99
-0.415222853422165 0.106416694819927 3.0990002155304 250 103 99
-0.406973302364349 0.106456689536572 3.10000014305115 255 106 106
-0.397945702075958 0.106290549039841 3.09500002861023 255 99 102
-0.389069825410843 0.106158651411533 3.09100008010864 249 90 97
-0.38009124994278 0.105992302298546 3.0860002040863 255 97 101
-0.37246361374855 0.106203675270081 3.09200024604797 255 97 101
-0.36456686258316 0.106346271932125 3.09600019454956 255 101 108
-0.356992453336716 0.10659185051918 3.10300016403198 252 91 96
-0.347918629646301 0.10639076679945 3.09700012207031 254 93 98
-0.338985770940781 0.106223918497562 3.09200024604797 255 103 108
-0.330292820930481 0.10612566024065 3.08900022506714 252 89 96
-0.322657108306885 0.106370873749256 3.09600019454956 254 97 104
-0.314170449972153 0.106341131031513 3.09500002861023 247 90 97
-0.305391728878021 0.106208197772503 3.09100008010864 255 98 105
-0.297306418418884 0.106315694749355 3.09400010108948 234 91 98
-0.289390534162521 0.106491811573505 3.0990002155304 231 94 100
-0.281537294387817 0.106702208518982 3.10500025749207 213 87 92
-0.47492977976799 0.098198264837265 3.10600018501282 219 126 121
-0.464435875415802 0.0977613553404808 3.09200024604797 255 130 124
-0.455786466598511 0.097703754901886 3.09000015258789 255 134 124
-0.447436183691025 0.0977093279361725 3.09000015258789 254 123 113
-0.438800424337387 0.0976515784859657 3.08800005912781 255 125 117
-0.429895371198654 0.0975305140018463 3.08400011062622 255 120 115
-0.421420931816101 0.0975042432546616 3.08300018310547 255 125 120
