-0.511078357696533 -0.404984563589096 2.38600015640259 221 72 62
-0.504422307014465 -0.404839336872101 2.38500022888184 219 71 59
-0.498188406229019 -0.405033469200134 2.38600015640259 221 72 62
-0.491536140441895 -0.404888093471527 2.38500022888184 221 70 62
-0.485905349254608 -0.405591487884521 2.38900017738342 222 71 63
-0.479248613119125 -0.405445992946625 2.38800001144409 220 70 58
-0.472002446651459 -0.404790937900543 2.3840000629425 220 70 58
-0.465167641639709 -0.404475420713425 2.382000207901 222 70 54
-0.458342701196671 -0.404159665107727 2.38000011444092 222 70 54
-0.45228722691536 -0.40452316403389 2.382000207901 226 72 56
-0.445845693349838 -0.404546827077866 2.382000207901 219 65 49
-0.439587742090225 -0.404740244150162 2.38300013542175 226 70 54
-0.433505237102509 -0.405103385448456 2.38500022888184 223 68 50
-0.427231907844543 -0.40529653429985 2.38600015640259 227 72 54
-0.421128630638123 -0.405659437179565 2.38800001144409 223 67 51
-0.414492696523666 -0.405512541532516 2.38700008392334 230 74 60
-0.408032178878784 -0.405535370111465 2.38700008392334 225 66 55
-0.401570826768875 -0.405558049678802 2.38700008392334 227 68 55
-0.394942969083786 -0.405410587787628 2.38600015640259 230 71 60
-0.388482540845871 -0.405432850122452 2.38600015640259 232 71 58
-0.381540715694427 -0.404945075511932 2.38300013542175 229 68 55
-0.37477171421051 -0.404626995325089 2.38100004196167 231 69 58
-0.367857962846756 -0.404138714075089 2.37800002098084 235 73 62
-0.361415565013886 -0.404160052537918 2.37800002098084 230 68 55
-0.355121552944183 -0.404351115226746 2.37900018692017 231 69 58
-0.348967730998993 -0.404711902141571 2.38100004196167 232 70 59
-0.342370629310608 -0.404562532901764 2.38000011444092 236 74 63
-0.336060404777527 -0.404752880334854 2.38100004196167 236 74 63
-0.329467058181763 -0.404602974653244 2.38000011444092 235 71 58
-0.323013961315155 -0.404622793197632 2.38000011444092 236 72 59
-0.316426992416382 -0.404472291469574 2.37900018692017 235 66 54
-0.309844613075256 -0.404321491718292 2.37800002098084 233 64 52
-0.30301159620285 -0.403830289840698 2.375 240 67 55
-0.296194165945053 -0.403338879346848 2.37200021743774 241 68 58
-0.290002882480621 -0.403697222471237 2.37400007247925 238 62 54
-0.28415834903717 -0.404565572738647 2.37900018692017 239 63 55
-0.277935594320297 -0.404923349618912 2.38100004196167 239 63 55
-0.271245241165161 -0.404600650072098 2.37900018692017 244 68 62
-0.26456493139267 -0.404277563095093 2.37700009346008 240 64 58
-0.257568955421448 -0.403443872928619 2.37200021743774 243 67 59
-0.251552224159241 -0.404140621423721 2.37600016593933 247 71 63
-0.244997292757034 -0.403986513614655 2.375 247 70 66
-0.238748341798782 -0.404342383146286 2.37700009346008 244 68 62
-0.231901541352272 -0.403677314519882 2.3730001449585 247 70 66
-0.225455746054649 -0.403692245483398 2.3730001449585 246 71 69
-0.218917012214661 -0.403536707162857 2.37200021743774 241 68 66
-0.212472647428513 -0.403550952672958 2.37200021743774 240 71 69
-0.20611447095871 -0.403734892606735 2.3730001449585 218 69 65
-0.624916553497314 -0.413952201604843 2.40300011634827 185 74 80
-0.614320456981659 -0.41121980547905 2.38700008392334 209 77 59
-0.607120633125305 -0.41072690486908 2.3840000629425 212 75 57
-0.600188434123993 -0.410406410694122 2.382000207901 212 70 55
-0.59426349401474 -0.410775184631348 2.3840000629425 209 70 52
-0.58832710981369 -0.411144107580185 2.38600015640259 213 71 54
-0.582135498523712 -0.411340832710266 2.38700008392334 216 72 55
-0.5754554271698 -0.411192983388901 2.38600015640259 213 71 54
-0.568541586399078 -0.41087281703949 2.3840000629425 210 66 49
-0.560930550098419 -0.410035640001297 2.37900018692017 215 71 54
-0.55451112985611 -0.410060256719589 2.37900018692017 213 69 52
-0.547860622406006 -0.409912437200546 2.37800002098084 216 72 55
-0.541442513465881 -0.409937083721161 2.37800002098084 222 78 61
-0.535698592662811 -0.410478889942169 2.38100004196167 216 73 52
-0.529715359210968 -0.410848379135132 2.38300013542175 215 71 54
-0.523281395435333 -0.410873115062714 2.38300013542175 219 72 60
-0.515979111194611 -0.410208076238632 2.37900018692017 217 70 58
-0.509340167045593 -0.410060256719589 2.37800002098084 220 71 61
-0.502705812454224 -0.409912377595901 2.37700009346008 221 73 61
-0.496702462434769 -0.410281836986542 2.37900018692017 222 71 61
-0.490275204181671 -0.410306304693222 2.37900018692017 220 69 59
-0.484253853559494 -0.410675674676895 2.38100004196167 218 67 59
-0.477016806602478 -0.410010069608688 2.37700009346008 219 67 55
-0.469998478889465 -0.409516781568527 2.37400007247925 222 70 56
-0.46358135342598 -0.409540951251984 2.37400007247925 223 69 53
-0.457548469305038 -0.40990999341011 2.37600016593933 223 69 53
-0.45112419128418 -0.409933924674988 2.37600016593933 223 69 53
-0.444511830806732 -0.409785181283951 2.375 224 70 54
-0.438088476657867 -0.409808844327927 2.375 225 72 54
-0.432209432125092 -0.410350024700165 2.37800002098084 230 75 57
-0.425776183605194 -0.410373449325562 2.37800002098084 232 77 59
-0.419342041015625 -0.410396695137024 2.37800002098084 230 74 58
-0.412386029958725 -0.409902036190033 2.375 226 70 54
-0.405787289142609 -0.40975233912468 2.37400007247925 228 69 56
-0.399024873971939 -0.409429848194122 2.37200021743774 230 72 56
-0.392603367567062 -0.409452378749847 2.37200021743774 225 66 53
-0.386343717575073 -0.409647256135941 2.3730001449585 232 72 56
-0.379757612943649 -0.40949672460556 2.37200021743774 229 69 53
-0.372703850269318 -0.408827990293503 2.36800003051758 226 64 51
-0.366134971380234 -0.408677011728287 2.36700010299683 228 66 55
-0.360026568174362 -0.409043729305267 2.36900019645691 226 64 51
-0.354055613279343 -0.409582912921906 2.37200021743774 231 69 58
-0.34777444601059 -0.409776538610458 2.3730001449585 231 66 57
-0.34134316444397 -0.409797251224518 2.3730001449585 236 71 61
-0.335052192211151 -0.409990429878235 2.37400007247925 233 68 58
-0.328478038311005 -0.409837901592255 2.3730001449585 233 68 58
-0.322044193744659 -0.409857839345932 2.3730001449585 236 70 57
-0.315742522478104 -0.410050183534622 2.37400007247925 236 67 55
-0.309043735265732 -0.409724116325378 2.37200021743774 240 69 57
-0.302354872226715 -0.409397661685944 2.37000012397766 239 66 56
-0.295551300048828 -0.408898174762726 2.36700010299683 239 66 56
-0.289251774549484 -0.409089326858521 2.36800003051758 241 65 57
-0.283304333686829 -0.409798562526703 2.37200021743774 242 66 58
-0.276984184980392 -0.40998911857605 2.3730001449585 240 64 56
-0.270429879426956 -0.409833818674088 2.37200021743774 238 62 54
-0.263657629489899 -0.409332662820816 2.36900019645691 243 67 59
-0.256575167179108 -0.40831270813942 2.36300015449524 242 66 58
-0.250477313995361 -0.408847510814667 2.36600017547607 244 68 60
-0.244362488389015 -0.409382045269012 2.36900019645691 243 67 61
-0.238431453704834 -0.410261899232864 2.37400007247925 245 69 63
-0.231397703289986 -0.409240424633026 2.36800003051758 244 71 67
-0.22468090057373 -0.408737003803253 2.36500000953674 243 74 72
-0.218071967363358 -0.408405989408493 2.36300015449524 226 60 57
-0.21183155477047 -0.408765941858292 2.36500000953674 255 165 159
-0.616355240345001 -0.419074565172195 2.39500021934509 206 80 74
-0.607096493244171 -0.417173832654953 2.3840000629425 201 69 53
-0.598904430866241 -0.41597306728363 2.37700009346008 212 69 57
-0.592245101928711 -0.415822327136993 2.37600016593933 212 70 55
-0.585837125778198 -0.415846645832062 2.37600016593933 215 73 58
-0.5799161195755 -0.416221082210541 2.37800002098084 213 71 54
-0.57301914691925 -0.415895581245422 2.37600016593933 212 70 53
-0.565655291080475 -0.415219932794571 2.37200021743774 212 70 53
-0.558312296867371 -0.414544254541397 2.36800003051758 214 72 55
-0.552155673503876 -0.414743989706039 2.36900019645691 215 73 56
-0.545532166957855 -0.414593547582626 2.36800003051758 213 71 54
-0.539596378803253 -0.414968401193619 2.37000012397766 214 72 55
-0.533649027347565 -0.415343314409256 2.37200021743774 221 77 62
-0.52769011259079 -0.415718287229538 2.37400007247925 217 72 60
-0.520621716976166 -0.415217638015747 2.37100005149841 220 73 61
-0.513351857662201 -0.414541840553284 2.36700010299683 216 69 57
-0.506745398044586 -0.414391368627548 2.36600017547607 217 69 57
-0.500777900218964 -0.414766222238541 2.36800003051758 223 73 61
-0.494798868894577 -0.4151411652565 2.37000012397766 219 68 58
-0.488808125257492 -0.415516078472137 2.37200021743774 216 65 55
-0.482195615768433 -0.415365368127823 2.37100005149841 217 66 58
-0.474985748529434 -0.414689034223557 2.36700010299683 223 71 59
-0.468390494585037 -0.414538145065308 2.36600017547607 224 72 60
-0.462385654449463 -0.414912760257721 2.36800003051758 226 72 58
-0.456176519393921 -0.415112167596817 2.36900019645691 222 68 52
-0.449581354856491 -0.414960891008377 2.36800003051758 222 66 50
-0.442990779876709 -0.414809554815292 2.36700010299683 229 73 57
-0.436958104372025 -0.415183871984482 2.36900019645691 229 74 54
-0.430731952190399 -0.415382772684097 2.37000012397766 233 78 58
-0.424141496419907 -0.415230989456177 2.36900019645691 226 71 51
-0.417555451393127 -0.415078997612 2.36800003051758 230 75 57
-0.410626709461212 -0.414576292037964 2.36500000953674 227 69 53
-0.404055237770081 -0.41442397236824 2.36400008201599 230 70 54
-0.397151798009872 -0.413920789957047 2.36100006103516 233 73 57
-0.390925824642181 -0.414118677377701 2.36200022697449 228 68 52
-0.384693473577499 -0.414316385984421 2.36300015449524 232 71 55
-0.378134667873383 -0.414163261651993 2.36200022697449 232 71 55
-0.371423006057739 -0.413834482431412 2.3600001335144 232 70 57
-0.365185350179672 -0.414031565189362 2.36100006103516 235 73 62
-0.359245300292969 -0.414579153060913 2.36400008201599 230 65 56
-0.353437423706055 -0.415301978588104 2.36800003051758 232 66 60
-0.347313940525055 -0.41567388176918 2.37000012397766 237 69 63
-0.340747177600861 -0.415519326925278 2.36900019645691 235 68 59
-0.333761602640152 -0.414838254451752 2.36500000953674 232 65 55
-0.326796919107437 -0.414156883955002 2.36100006103516 231 64 54
-0.320667296648026 -0.414527714252472 2.36300015449524 234 65 53
-0.31452602148056 -0.414898306131363 2.36500000953674 237 69 54
-0.308242797851563 -0.415093213319778 2.36600017547607 242 71 59
-0.301825672388077 -0.415112376213074 2.36600017547607 236 65 53
-0.295282930135727 -0.414955735206604 2.36500000953674 233 62 52
-0.288622707128525 -0.414623379707336 2.36300015449524 240 67 57
-0.282091975212097 -0.414466142654419 2.36200022697449 248 75 65
-0.275916010141373 -0.414835005998611 2.36400008201599 242 69 59
-0.269614428281784 -0.415028005838394 2.36500000953674 238 65 53
-0.262861520051956 -0.414518803358078 2.36200022697449 239 66 54
-0.255798488855362 -0.413482755422592 2.35600018501282 244 73 63
-0.249614074826241 -0.413850247859955 2.35800004005432 241 70 60
-0.243624448776245 -0.414568513631821 2.36200022697449 242 72 66
-0.237612351775169 -0.41528645157814 2.36600017547607 241 73 68
-0.230796173214912 -0.414599895477295 2.36200022697449 210 61 57
-0.224096015095711 -0.414088428020477 2.35900020599365 245 162 152
-0.599132120609283 -0.422578275203705 2.37800002098084 205 71 62
-0.590725302696228 -0.421180963516235 2.37000012397766 210 71 62
-0.583347141742706 -0.420494496822357 2.36600017547607 212 71 60
-0.577453017234802 -0.420874357223511 2.36800003051758 213 70 58
-0.57034170627594 -0.420365661382675 2.36500000953674 211 71 56
-0.563722968101501 -0.420212507247925 2.36400008201599 212 73 55
-0.556637346744537 -0.419703871011734 2.36100006103516 216 77 59
-0.550732672214508 -0.420084089040756 2.36300015449524 214 72 55
-0.54389488697052 -0.419753193855286 2.36100006103516 216 74 57
-0.537750244140625 -0.419955760240555 2.36200022697449 214 72 55
-0.531599521636963 -0.420158356428146 2.36300015449524 217 75 58
-0.525442600250244 -0.420360952615738 2.36400008201599 219 75 58
-0.517962098121643 -0.419496595859528 2.35900020599365 217 73 56
-0.510724723339081 -0.41881000995636 2.35500001907349 215 71 54
-0.50457900762558 -0.419012486934662 2.35600018501282 219 73 56
-0.498850107192993 -0.419570773839951 2.35900020599365 217 70 53
-0.493312865495682 -0.420306861400604 2.36300015449524 219 69 55
-0.486516773700714 -0.419975697994232 2.36100006103516 220 68 54
-0.480137497186661 -0.42000025510788 2.36100006103516 226 71 61
-0.472954750061035 -0.419313162565231 2.35700011253357 231 74 64
-0.46658456325531 -0.4193374812603 2.35700011253357 226 69 59
-0.460408806800842 -0.419539660215378 2.35800004005432 221 64 54
-0.454419374465942 -0.419919729232788 2.3600001335144 222 65 55
-0.448418259620667 -0.420299738645554 2.36200022697449 228 71 60
-0.44184398651123 -0.420145720243454 2.36100006103516 221 67 53
-0.436196506023407 -0.420881450176239 2.36500000953674 228 72 56
-0.429436147212982 -0.420549273490906 2.36300015449524 227 71 55
-0.422685712575912 -0.420216917991638 2.36100006103516 228 72 56
-0.415945202112198 -0.419884324073792 2.35900020599365 224 66 50
-0.409214675426483 -0.419551581144333 2.35700011253357 224 64 48
-0.403006821870804 -0.419752657413483 2.35800004005432 227 65 52
-0.395783424377441 -0.418885409832001 2.35300016403198 233 71 58
-0.389579266309738 -0.419086098670959 2.35400009155273 229 67 54
-0.383043229579926 -0.418930500745773 2.35300016403198 231 69 56
-0.376831829547882 -0.419130831956863 2.35400009155273 229 67 54
-0.370299488306046 -0.418974816799164 2.35300016403198 228 63 53
-0.364235609769821 -0.41935271024704 2.35500001907349 234 69 59
-0.35831207036972 -0.419908553361893 2.35800004005432 236 71 62
-0.352222174406052 -0.420286178588867 2.3600001335144 231 66 57
-0.346267104148865 -0.420841634273529 2.36300015449524 233 65 59
-0.339719593524933 -0.420684456825256 2.36200022697449 239 72 63
-0.332612216472626 -0.419814556837082 2.35700011253357 236 69 59
-0.325254291296005 -0.418588101863861 2.35000014305115 236 67 55
-0.31888335943222 -0.418608129024506 2.35000014305115 235 67 52
-0.312910526990891 -0.419162303209305 2.35300016403198 241 71 56
-0.307050913572311 -0.419894367456436 2.35700011253357 243 73 58
-0.30065855383873 -0.419913619756699 2.35700011253357 243 70 58
-0.294390201568604 -0.420110672712326 2.35800004005432 234 61 51
-0.287382930517197 -0.41923850774765 2.35300016403198 235 62 52
-0.281118452548981 -0.41943496465683 2.35400009155273 245 72 62
-0.27473109960556 -0.419452905654907 2.35400009155273 248 75 63
-0.268912971019745 -0.420361548662186 2.35900020599365 248 75 63
-0.262176752090454 -0.419844329357147 2.35600018501282 238 67 55
-0.255456000566483 -0.419326663017273 2.35300016403198 242 73 63
-0.248750850558281 -0.41880863904953 2.35000014305115 242 75 66
-0.242576971650124 -0.419181346893311 2.35199999809265 237 73 68
-0.236491918563843 -0.419731914997101 2.35500001907349 221 60 57
-0.603894591331482 -0.432435661554337 2.3970000743866 201 92 96
-0.591199338436127 -0.427949905395508 2.37200021743774 200 68 62
-0.582089900970459 -0.425989747047424 2.36100006103516 211 72 63
-0.57523387670517 -0.425653338432312 2.35900020599365 210 69 58
-0.568870306015015 -0.425677925348282 2.35900020599365 210 72 57
-0.562029123306274 -0.425341665744781 2.35700011253357 209 69 54
-0.555433928966522 -0.425185829401016 2.35600018501282 214 75 57
-0.549542546272278 -0.425571501255035 2.35800004005432 211 72 54
-0.542718350887299 -0.425235360860825 2.35600018501282 214 75 57
-0.536131858825684 -0.425079613924026 2.35500001907349 214 72 55
-0.529325127601624 -0.424743473529816 2.35300016403198 215 73 56
-0.522528290748596 -0.424407184123993 2.3510000705719 213 71 54
-0.515522122383118 -0.423890382051468 2.34800004959106 215 71 54
-0.508531391620636 -0.423373520374298 2.34500002861023 219 75 58
-0.502626895904541 -0.423759311437607 2.34700012207031 219 73 56
-0.496922194957733 -0.424325704574585 2.35000014305115 222 75 58
-0.490991801023483 -0.424711525440216 2.35199999809265 221 71 57
-0.484431594610214 -0.424555629491806 2.3510000705719 218 66 52
-0.477876037359238 -0.424399584531784 2.35000014305115 222 65 55
-0.471726357936859 -0.424604713916779 2.3510000705719 224 67 57
-0.465372532606125 -0.424629181623459 2.3510000705719 224 67 57
-0.458822578191757 -0.424472898244858 2.35000014305115 222 65 55
-0.452662289142609 -0.424677789211273 2.3510000705719 227 67 58
-0.446495711803436 -0.424882560968399 2.35199999809265 225 68 57
-0.44032296538353 -0.42508727312088 2.35300016403198 220 64 50
-0.433775067329407 -0.424930542707443 2.35199999809265 228 72 56
-0.427050024271011 -0.42459300160408 2.35000014305115 231 73 57
-0.420334875583649 -0.424255162477493 2.34800004959106 225 67 51
-0.414158701896667 -0.424459367990494 2.3490002155304 230 70 54
-0.407628983259201 -0.424301952123642 2.34800004959106 230 69 53
-0.401787459850311 -0.424867212772369 2.3510000705719 229 67 56
-0.3947514295578 -0.42416724562645 2.34700012207031 228 66 53
-0.388398200273514 -0.424190014600754 2.34700012207031 227 65 54
-0.382044076919556 -0.424212545156479 2.34700012207031 231 66 56
-0.375689119100571 -0.424234926700592 2.34700012207031 231 66 56
-0.369333297014236 -0.424257010221481 2.34700012207031 230 65 55
-0.3631312251091 -0.424459666013718 2.34800004959106 235 68 59
-0.357226848602295 -0.425023764371872 2.3510000705719 230 65 56
-0.351006925106049 -0.425226002931595 2.35199999809265 232 67 58
-0.344780713319778 -0.425428122282028 2.35300016403198 235 68 59
-0.338116675615311 -0.425087422132492 2.3510000705719 236 69 59
-0.33103945851326 -0.424204081296921 2.34600019454956 237 70 60
-0.323850065469742 -0.423139542341232 2.34000015258789 239 70 58
-0.31764218211174 -0.423340409994125 2.34100008010864 237 67 52
-0.31169405579567 -0.423902839422226 2.34400010108948 240 70 55
-0.305859059095383 -0.424645781517029 2.34800004959106 241 71 56
-0.299236327409744 -0.424303382635117 2.34600019454956 242 69 57
-0.292873322963715 -0.424322366714478 2.34600019454956 247 74 62
-0.286265283823013 -0.423979312181473 2.34400010108948 245 72 60
-0.280144959688187 -0.424359440803528 2.34600019454956 238 65 53
-0.273896336555481 -0.424558341503143 2.34700012207031 239 68 56
-0.268097460269928 -0.425480544567108 2.35199999809265 242 71 59
-0.261380583047867 -0.424955308437347 2.3490002155304 243 74 62
-0.25467923283577 -0.424429595470428 2.34600019454956 243 78 69
-0.247993469238281 -0.423903554677963 2.34300017356873 224 61 54
-0.241838902235031 -0.424281716346741 2.34500002861023 248 110 105
-0.583298146724701 -0.433288663625717 2.36600017547607 197 73 67
-0.57472163438797 -0.431665033102036 2.35700011253357 203 71 55
-0.567881047725677 -0.431323289871216 2.35500001907349 210 71 60
-0.561050713062286 -0.43098172545433 2.35300016403198 211 73 60
-0.554701924324036 -0.431006461381912 2.35300016403198 212 74 59
-0.548352539539337 -0.431031286716461 2.35300016403198 215 73 56
-0.541541755199432 -0.430689692497253 2.3510000705719 217 73 56
-0.534513473510742 -0.430164992809296 2.34800004959106 216 72 55
-0.527275681495667 -0.429456979036331 2.34400010108948 215 71 54
-0.52072548866272 -0.429298609495163 2.34300017356873 217 71 54
-0.513960480690002 -0.428956925868988 2.34100008010864 218 74 57
-0.507205545902252 -0.428615272045136 2.33900022506714 214 68 51
-0.501531362533569 -0.429189741611481 2.34200000762939 217 70 53
-0.495417356491089 -0.429397821426392 2.34300017356873 221 74 57
-0.489088386297226 -0.429422557353973 2.34300017356873 218 68 54
-0.482758581638336 -0.429447263479233 2.34300017356873 222 70 56
-0.47663140296936 -0.429655194282532 2.34400010108948 227 70 59
-0.470899254083633 -0.430229693651199 2.34700012207031 221 65 51
-0.464556306600571 -0.430254220962524 2.34700012207031 218 61 50
-0.457822024822235 -0.429912000894547 2.34500002861023 221 64 53
-0.451482832431793 -0.429936349391937 2.34500002861023 227 68 57
-0.444763153791428 -0.42959389090538 2.34300017356873 229 70 59
-0.438614845275879 -0.429801374673843 2.34400010108948 224 65 54
-0.431906938552856 -0.429458558559418 2.34200000762939 232 71 58
-0.425754278898239 -0.429665803909302 2.34300017356873 232 71 58
-0.419058203697205 -0.42932265996933 2.34100008010864 229 68 55
-0.412901103496552 -0.429529577493668 2.34200000762939 234 72 59
-0.40639054775238 -0.429369568824768 2.34100008010864 231 69 58
-0.40039724111557 -0.429759621620178 2.34300017356873 231 68 61
-0.393887579441071 -0.42959913611412 2.34200000762939 232 66 60
-0.38787904381752 -0.429988890886307 2.34400010108948 233 65 59
-0.381207704544067 -0.429644614458084 2.34200000762939 231 63 58
-0.374706417322159 -0.429483592510223 2.34100008010864 231 63 57
-0.368052363395691 -0.429138898849487 2.33900022506714 233 63 57
-0.362026870250702 -0.429527878761292 2.34100008010864 237 67 62
-0.355837762355804 -0.429733097553253 2.34200000762939 233 63 58
-0.349940836429596 -0.430305153131485 2.34500002861023 236 66 60
-0.343440771102905 -0.430142939090729 2.34400010108948 239 69 63
-0.336945295333862 -0.429980516433716 2.34300017356873 237 68 59
-0.330172210931778 -0.42945072054863 2.34000015258789 235 66 57
-0.323137819766998 -0.428553551435471 2.33500003814697 245 74 64
-0.316536754369736 -0.428206652402878 2.33300018310547 240 67 55
-0.310477554798126 -0.42859360575676 2.33500003814697 236 63 51
-0.304667294025421 -0.429347544908524 2.33900022506714 238 66 51
-0.298196762800217 -0.429183334112167 2.33800005912781 241 68 56
-0.291855752468109 -0.429202377796173 2.33800005912781 238 67 55
-0.285269737243652 -0.428853929042816 2.3360002040863 238 67 57
-0.279290854930878 -0.429423153400421 2.33900022506714 243 69 61
-0.272944837808609 -0.429441273212433 2.33900022506714 239 65 59
-0.266940027475357 -0.430009871721268 2.34200000762939 243 71 65
-0.260361880064011 -0.429660111665726 2.34000015258789 217 63 57
-0.25368532538414 -0.429126381874084 2.33700013160706 203 63 58
-0.577379047870636 -0.440081208944321 2.36800003051758 189 73 67
-0.567856311798096 -0.437689930200577 2.35500001907349 212 76 61
-0.559356927871704 -0.436041951179504 2.34600019454956 208 70 57
-0.553262650966644 -0.436252564191818 2.34700012207031 211 70 59
-0.546463370323181 -0.435905635356903 2.34500002861023 212 70 55
-0.539674162864685 -0.435558706521988 2.34300017356873 219 75 60
-0.532439827919006 -0.434839934110641 2.33900022506714 214 68 53
-0.525226354598999 -0.434121131896973 2.33500003814697 216 70 55
-0.518478274345398 -0.433774173259735 2.33300018310547 219 73 58
-0.511520743370056 -0.433241158723831 2.33000016212463 216 70 55
-0.505446016788483 -0.433451890945435 2.33100008964539 214 68 51
-0.499579310417175 -0.433848589658737 2.33300018310547 220 72 58
-0.4939124584198 -0.434431314468384 2.3360002040863 219 69 55
-0.487185031175613 -0.434084177017212 2.33400011062622 216 66 52
-0.481085568666458 -0.434294849634171 2.33500003814697 221 69 55
-0.474370062351227 -0.433947533369064 2.33300018310547 229 72 61
-0.468868345022202 -0.434716165065765 2.33700013160706 227 70 59
-0.462750375270844 -0.434926718473434 2.33800005912781 221 64 53
-0.456431001424789 -0.434951215982437 2.33800005912781 224 67 56
-0.449725836515427 -0.434603542089462 2.3360002040863 224 65 54
-0.442650943994522 -0.43388357758522 2.33200001716614 229 70 57
-0.436906665563583 -0.434465855360031 2.33500003814697 225 65 49
-0.430223315954208 -0.43411773443222 2.33300018310547 227 67 51
-0.424095094203949 -0.434327691793442 2.33400011062622 229 67 54
-0.417602598667145 -0.434165328741074 2.33300018310547 228 66 53
-0.41164356470108 -0.434561103582382 2.33500003814697 230 68 57
-0.405325651168823 -0.434584498405457 2.33500003814697 228 65 56
-0.399006962776184 -0.434607833623886 2.33500003814697 234 68 62
-0.393023729324341 -0.435003161430359 2.33700013160706 226 60 55
-0.386532485485077 -0.434839934110641 2.3360002040863 232 62 57
-0.380045801401138 -0.434676498174667 2.33500003814697 233 63 58
-0.373083502054214 -0.433954328298569 2.33100008964539 226 56 51
-0.366456747055054 -0.433604210615158 2.3289999961853 237 67 62
-0.360303908586502 -0.433812469244003 2.33000016212463 234 64 59
-0.354448705911636 -0.434392839670181 2.33300018310547 230 60 55
-0.34857639670372 -0.434973031282425 2.3360002040863 233 63 57
-0.34224745631218 -0.434994399547577 2.3360002040863 238 66 60
-0.335917711257935 -0.43501552939415 2.3360002040863 237 67 61
-0.329304963350296 -0.43466392159462 2.33400011062622 246 74 66
-0.322148770093918 -0.433567047119141 2.32800006866455 237 65 57
-0.315838307142258 -0.433587342500687 2.32800006866455 240 67 57
-0.309527039527893 -0.433607339859009 2.32800006866455 239 66 54
-0.303866237401962 -0.4345583319664 2.33300018310547 241 68 56
-0.297284752130508 -0.434205204248428 2.33100008964539 243 70 58
-0.291087806224823 -0.434410572052002 2.33200001716614 238 67 55
-0.284274220466614 -0.433684229850769 2.32800006866455 239 67 59
-0.277959108352661 -0.433702737092972 2.32800006866455 243 71 65
-0.271643280982971 -0.433720856904984 2.32800006866455 236 68 63
-0.265668630599976 -0.434297651052475 2.33100008964539 220 56 53
-0.561001062393188 -0.443703651428223 2.35300016403198 200 73 64
-0.552294969558716 -0.441842764616013 2.34300017356873 207 68 57
-0.544574320316315 -0.44073611497879 2.33700013160706 208 66 51
-0.537806630134583 -0.440383762121201 2.33500003814697 213 68 56
-0.531504392623901 -0.440408676862717 2.33500003814697 212 66 51
-0.524526715278625 -0.439867675304413 2.33200001716614 208 61 49
-0.517342209815979 -0.43913808465004 2.32800006866455 217 68 58
-0.509739637374878 -0.438031077384949 2.32200002670288 215 66 56
-0.503686606884003 -0.438244611024857 2.32300019264221 218 70 58
-0.497841447591782 -0.438646733760834 2.32500004768372 225 77 65
-0.491984814405441 -0.439048916101456 2.3270001411438 225 75 61
-0.485281676054001 -0.438696265220642 2.32500004768372 217 67 53
-0.479000627994537 -0.438721030950546 2.32500004768372 219 67 53
-0.472922146320343 -0.438934445381165 2.32600021362305 225 70 59
-0.466837525367737 -0.439147800207138 2.3270001411438 226 71 60
-0.460548728704453 -0.439172357320786 2.3270001411438 223 66 55
-0.45445442199707 -0.439385592937469 2.32800006866455 229 73 59
-0.447968870401382 -0.439221233129501 2.3270001411438 226 67 54
-0.440918475389481 -0.438490480184555 2.32300019264221 234 74 58
-0.434824436903 -0.43870335817337 2.32400012016296 227 67 51
-0.428724139928818 -0.438916176557541 2.32500004768372 228 67 51
-0.422981053590775 -0.439506441354752 2.32800006866455 228 66 53
-0.416862934827805 -0.439719080924988 2.3289999961853 231 69 58
-0.41056227684021 -0.439742714166641 2.3289999961853 230 68 57
-0.404260784387589 -0.439766198396683 2.3289999961853 232 67 58
-0.397787630558014 -0.439600706100464 2.32800006866455 225 59 53
-0.391487151384354 -0.439623802900314 2.32800006866455 228 62 56
-0.385185986757278 -0.43964684009552 2.32800006866455 235 67 62
-0.378721117973328 -0.439480721950531 2.3270001411438 233 65 60
-0.371940761804581 -0.438936620950699 2.32400012016296 226 58 53
-0.365490585565567 -0.438770115375519 2.32300019264221 240 70 65
-0.359044879674912 -0.43860325217247 2.32200002670288 233 63 57
-0.353363513946533 -0.439380764961243 2.32600021362305 231 61 55
-0.347211956977844 -0.439591288566589 2.3270001411438 235 65 59
-0.341054111719131 -0.439801603555679 2.32800006866455 232 60 52
-0.334746301174164 -0.439822793006897 2.32800006866455 236 64 56
-0.328437685966492 -0.439843744039536 2.32800006866455 237 65 57
-0.32143646478653 -0.438919633626938 2.32300019264221 238 66 58
-0.314461499452591 -0.437995165586472 2.31800007820129 235 64 54
-0.307778805494308 -0.43744832277298 2.31500005722046 235 64 54
-0.302023231983185 -0.438223838806152 2.31900000572205 239 70 58
-0.295990139245987 -0.438621312379837 2.32100009918213 238 71 61
-0.289820671081543 -0.438829451799393 2.32200002670288 237 70 60
-0.283156603574753 -0.438281327486038 2.31900000572205 237 74 67
-0.276746839284897 -0.438110798597336 2.31800007820129 221 63 57
-0.554391443729401 -0.449897408485413 2.35199999809265 191 70 65
-0.544316470623016 -0.446861803531647 2.3360002040863 212 74 59
-0.536169528961182 -0.445356279611588 2.32800006866455 214 72 55
-0.529886186122894 -0.445381194353104 2.32800006866455 216 66 54
-0.523377180099487 -0.445214778184891 2.3270001411438 217 69 57
-0.517095148563385 -0.445239752531052 2.3270001411438 213 64 54
-0.509495317935944 -0.444116622209549 2.32100009918213 217 68 58
-0.50279438495636 -0.443758726119995 2.31900000572205 219 71 59
-0.495889544487 -0.443209528923035 2.31600022315979 214 64 52
-0.490268558263779 -0.443808406591415 2.31900000572205 221 71 57
-0.483587175607681 -0.443450510501862 2.31700015068054 223 71 57
-0.477327793836594 -0.443475246429443 2.31700015068054 220 68 56
-0.470864355564117 -0.443308502435684 2.31600022315979 223 66 56
-0.464806795120239 -0.443524599075317 2.31700015068054 222 65 54
-0.458347231149673 -0.443357735872269 2.31600022315979 218 61 51
-0.452282696962357 -0.443573653697968 2.31700015068054 230 71 60
-0.445634484291077 -0.443215131759644 2.31500005722046 228 70 54
-0.439186036586761 -0.443047910928726 2.31400012969971 232 72 56
-0.433116465806961 -0.443263530731201 2.31500005722046 228 68 52
-0.427593767642975 -0.444053471088409 2.31900000572205 227 65 52
-0.421140283346176 -0.443885982036591 2.31800007820129 231 69 56
-0.415049314498901 -0.444101274013519 2.31900000572205 226 64 51
-0.408952236175537 -0.444316536188126 2.32000017166138 232 70 59
-0.403022319078445 -0.444723069667816 2.32200002670288 230 65 55
-0.396739155054092 -0.444746404886246 2.32200002670288 233 68 59
-0.39011886715889 -0.444386571645737 2.32000017166138 229 63 57
-0.383839458227158 -0.444409549236298 2.32000017166138 234 66 60
-0.377070993185043 -0.443857640028 2.31700015068054 232 64 58
-0.370958089828491 -0.444071769714355 2.31800007820129 234 66 60
-0.364681661128998 -0.444094181060791 2.31800007820129 238 68 62
-0.358249813318253 -0.443924754858017 2.31700015068054 236 67 58
-0.352278262376785 -0.444329828023911 2.31900000572205 236 67 58
-0.345698326826096 -0.44396835565567 2.31700015068054 235 66 57
-0.339421361684799 -0.443989813327789 2.31700015068054 236 67 57
-0.332999855279922 -0.443819373846054 2.31600022315979 236 67 57
-0.326865077018738 -0.444031924009323 2.31700015068054 237 68 58
-0.320309013128281 -0.443669259548187 2.31500005722046 232 63 53
-0.313627362251282 -0.443114668130875 2.31200003623962 240 68 60
-0.307094186544418 -0.442751437425613 2.31000018119812 242 73 63
-0.300961762666702 -0.442962884902954 2.31100010871887 238 71 61
-0.294950634241104 -0.443365722894669 2.31300020217896 240 75 66
-0.288678348064423 -0.443384945392609 2.31300020217896 241 78 71
-0.282161146402359 -0.443020403385162 2.31100010871887 219 71 64
-0.546388447284698 -0.454921305179596 2.34500002861023 205 79 65
-0.535914361476898 -0.451454311609268 2.3270001411438 205 69 54
-0.52849555015564 -0.450509130954742 2.32200002670288 213 64 54
-0.522452652454376 -0.450728118419647 2.32300019264221 219 72 60
-0.516847968101501 -0.451335251331329 2.32600021362305 221 71 59
-0.509470403194427 -0.450390011072159 2.32100009918213 222 72 60
-0.501902282238007 -0.449250549077988 2.31500005722046 219 69 57
-0.494580060243607 -0.448305130004883 2.31000018119812 215 65 53
-0.488129675388336 -0.448135852813721 2.30900001525879 217 67 53
-0.481892704963684 -0.448160648345947 2.30900001525879 219 67 53
-0.47565495967865 -0.448185414075851 2.30900001525879 224 69 58
-0.469823151826859 -0.448598355054855 2.31100010871887 220 63 53
-0.463779151439667 -0.448817133903503 2.31200003623962 224 64 55
-0.457531064748764 -0.448841720819473 2.31200003623962 226 66 57
-0.451282232999802 -0.448866277933121 2.31200003623962 225 65 56
-0.444647669792175 -0.448502391576767 2.31000018119812 234 75 62
-0.438212901353836 -0.448332577943802 2.30900001525879 225 67 51
-0.431782752275467 -0.448162615299225 2.30800008773804 232 71 58
-0.425725966691971 -0.44838085770607 2.30900001525879 225 63 50
-0.41929966211319 -0.448210567235947 2.30800008773804 230 68 55
-0.413235872983933 -0.448428601026535 2.30900001525879 227 65 52
-0.407165914773941 -0.448646515607834 2.31000018119812 229 68 52
-0.401089698076248 -0.448864251375198 2.31100010871887 238 74 59
-0.39517816901207 -0.449276119470596 2.31300020217896 234 70 57
-0.388582438230515 -0.44891083240509 2.31100010871887 228 63 53
-0.382492959499359 -0.449128091335297 2.31200003623962 230 65 55
-0.375909149646759 -0.448762387037277 2.31000018119812 234 67 57
-0.369975388050079 -0.44917356967926 2.31200003623962 234 68 53
-0.363872766494751 -0.449390321969986 2.31300020217896 231 65 50
-0.357454627752304 -0.449218153953552 2.31200003623962 232 66 51
-0.351496905088425 -0.449628800153732 2.31400012969971 236 70 55
-0.344930738210678 -0.44926193356514 2.31200003623962 239 73 58
-0.338374644517899 -0.448894768953323 2.31000018119812 240 74 59
-0.331828504800797 -0.448527365922928 2.30800008773804 240 74 59
-0.325292497873306 -0.448159575462341 2.30599999427795 241 75 60
-0.319181621074677 -0.448374658823013 2.30700016021729 234 70 55
-0.312386363744736 -0.447617650032043 2.3030002117157 237 70 60
-0.306143701076508 -0.447637736797333 2.3030002117157 237 72 63
-0.299770087003708 -0.447463154792786 2.30200004577637 233 69 64
-0.293911129236221 -0.448065787553787 2.3050000667572 208 64 59
-0.537501454353333 -0.459119945764542 2.33400011062622 167 72 78
-0.527332723140717 -0.455800801515579 2.31700015068054 210 64 56
-0.519953787326813 -0.454842090606689 2.31200003623962 214 67 50
-0.514378726482391 -0.455457210540771 2.31500005722046 218 72 54
-0.507469832897186 -0.454891890287399 2.31200003623962 218 69 52
-0.500359833240509 -0.454129785299301 2.30800008773804 215 66 49
-0.493270635604858 -0.453367650508881 2.30400013923645 214 64 50
-0.487047910690308 -0.45339247584343 2.30400013923645 220 68 54
-0.480824500322342 -0.453417301177979 2.30400013923645 225 71 55
-0.474806278944016 -0.453638881444931 2.3050000667572 222 66 52
-0.468172132968903 -0.453269988298416 2.3030002117157 220 63 52
-0.461949229240417 -0.453294664621353 2.3030002117157 223 64 53
-0.455725520849228 -0.453319191932678 2.3030002117157 224 67 56
-0.44969630241394 -0.453540623188019 2.30400013923645 227 70 59
-0.443275928497314 -0.453368186950684 2.3030002117157 231 72 59
-0.436860144138336 -0.453195631504059 2.30200004577637 227 69 53
-0.4306361079216 -0.453219830989838 2.30200004577637 230 69 58
-0.424964427947998 -0.453834623098373 2.3050000667572 231 69 58
-0.418549090623856 -0.453661739826202 2.30400013923645 231 69 56
-0.411959379911423 -0.453291714191437 2.30200004577637 231 69 56
-0.405555993318558 -0.453118503093719 2.30100011825562 233 71 58
-0.399504274129868 -0.453338980674744 2.30200004577637 231 67 54
-0.39378809928894 -0.453953206539154 2.3050000667572 233 69 56
-0.38738226890564 -0.453779488801956 2.30400013923645 230 65 55
-0.38114657998085 -0.453802525997162 2.30400013923645 231 64 54
-0.374259203672409 -0.453037530183792 2.30000019073486 238 72 59
-0.368352681398392 -0.453454077243805 2.30200004577637 235 69 54
-0.362119972705841 -0.453476458787918 2.30200004577637 234 68 53
-0.35635033249855 -0.45408970117569 2.3050000667572 240 74 59
-0.350107967853546 -0.454111725091934 2.3050000667572 232 66 51
-0.343715608119965 -0.453936487436295 2.30400013923645 234 68 53
-0.33718141913414 -0.453563988208771 2.30200004577637 238 72 57
-0.330513477325439 -0.452994078397751 2.29900002479553 236 72 57
-0.324143201112747 -0.452818065881729 2.29800009727478 237 73 58
-0.318192601203918 -0.453232884407043 2.30000019073486 241 77 64
-0.311823457479477 -0.453056186437607 2.29900002479553 234 71 62
-0.305857837200165 -0.453470557928085 2.30100011825562 233 70 63
-0.299359738826752 -0.453096270561218 2.29900002479553 184 66 59
-0.530721485614777 -0.465053230524063 2.33200001716614 202 71 67
-0.520378649234772 -0.461488574743271 2.31400012969971 212 69 57
-0.512131929397583 -0.459718555212021 2.3050000667572 221 74 56
-0.505030632019043 -0.458945631980896 2.30100011825562 213 66 48
-0.498600631952286 -0.458771109580994 2.30000019073486 219 70 53
-0.491747170686722 -0.458197504281998 2.29700016975403 213 64 47
-0.485120594501495 -0.45782333612442 2.29500007629395 227 73 57
-0.479130178689957 -0.458047598600388 2.2960000038147 219 65 49
-0.473133623600006 -0.458271920681 2.29700016975403 223 67 53
-0.466521143913269 -0.457897573709488 2.29500007629395 219 62 51
-0.46031990647316 -0.45792219042778 2.29500007629395 221 64 53
-0.454315781593323 -0.458146303892136 2.2960000038147 227 70 59
-0.448500692844391 -0.458569943904877 2.29800009727478 227 70 59
-0.442096680402756 -0.458394855260849 2.29700016975403 228 72 58
-0.435127943754196 -0.457620918750763 2.29300022125244 229 71 55
-0.428928375244141 -0.457645148038864 2.29300022125244 234 73 60
-0.422912389039993 -0.457868814468384 2.29400014877319 225 63 50
-0.417435199022293 -0.458691209554672 2.29800009727478 225 63 52
-0.410861879587173 -0.458315849304199 2.2960000038147 230 68 55
-0.404474884271622 -0.458139926195145 2.29500007629395 231 69 56
-0.398266017436981 -0.458163499832153 2.29500007629395 230 66 53
-0.392227172851563 -0.45838651061058 2.2960000038147 230 66 53
-0.386182278394699 -0.458609491586685 2.29700016975403 227 62 52
-0.379800230264664 -0.458432853221893 2.2960000038147 239 72 62
-0.373260140419006 -0.458056330680847 2.29400014877319 236 70 57
-0.366730064153671 -0.457679629325867 2.29200005531311 235 69 54
-0.360839277505875 -0.458101481199265 2.29400014877319 236 70 55
-0.355091452598572 -0.458722800016403 2.29700016975403 237 69 54
-0.348870933055878 -0.458744823932648 2.29700016975403 235 67 52
-0.342351347208023 -0.458367139101028 2.29500007629395 235 69 56
-0.335841834545136 -0.457989245653152 2.29300022125244 239 73 60
-0.329486042261124 -0.45781072974205 2.29200005531311 236 70 55
-0.323276042938232 -0.457831770181656 2.29200005531311 235 71 56
-0.317203640937805 -0.458052307367325 2.29300022125244 236 74 61
-0.310989409685135 -0.458072751760483 2.29300022125244 219 61 54
-0.304907351732254 -0.458292752504349 2.29400014877319 255 169 161
-0.512995660305023 -0.466755211353302 2.30900001525879 201 61 56
-0.504347324371338 -0.464556515216827 2.29800009727478 216 70 53
-0.497491836547852 -0.463974863290787 2.29500007629395 221 69 53
-0.491080105304718 -0.463797628879547 2.29400014877319 219 67 51
-0.484461635351181 -0.463418006896973 2.29200005531311 219 67 51
-0.477853387594223 -0.463038474321365 2.29000020027161 222 68 52
-0.471873044967651 -0.463265419006348 2.29100012779236 223 69 55
-0.465276837348938 -0.462885677814484 2.28900003433228 224 70 56
-0.458690762519836 -0.462505847215652 2.28700017929077 221 67 53
-0.452510476112366 -0.462530434131622 2.28700017929077 228 73 62
-0.446719735860825 -0.462959408760071 2.28900003433228 220 65 54
-0.440340101718903 -0.462781578302383 2.28800010681152 228 72 58
-0.433395862579346 -0.461996793746948 2.28400015830994 231 75 61
-0.427407801151276 -0.462223261594772 2.28500008583069 238 77 64
-0.421597927808762 -0.462651938199997 2.28700017929077 231 69 58
-0.416139721870422 -0.463485151529312 2.29100012779236 232 70 59
-0.409943401813507 -0.463509052991867 2.29100012779236 225 62 53
-0.403570085763931 -0.463330507278442 2.29000020027161 237 72 63
-0.396854311227798 -0.462747037410736 2.28700017929077 237 72 62
-0.390666484832764 -0.462770402431488 2.28700017929077 229 64 54
-0.384645998477936 -0.462996006011963 2.28800010681152 232 67 57
-0.378619372844696 -0.463221400976181 2.28900003433228 230 65 55
-0.371935695409775 -0.462637096643448 2.28600001335144 235 70 60
-0.365587532520294 -0.462457418441772 2.28500008583069 242 75 65
-0.35971587896347 -0.462884664535522 2.28700017929077 237 71 58
-0.353832602500916 -0.463311672210693 2.28900003433228 234 65 55
-0.347026526927948 -0.462524086236954 2.28500008583069 236 67 57
-0.340390533208847 -0.461938560009003 2.28200006484985 237 68 59
-0.334355801343918 -0.462162464857101 2.28299999237061 241 74 65
-0.328171163797379 -0.462183773517609 2.28299999237061 237 75 66
-0.32240891456604 -0.462812125682831 2.28600001335144 214 54 45
-0.316491335630417 -0.463237851858139 2.28800010681152 207 70 61
-0.518746912479401 -0.478319555521011 2.33500003814697 209 103 115
-0.506297528743744 -0.472608834505081 2.30700016021729 208 70 66
-0.497033476829529 -0.469765692949295 2.29300022125244 216 66 52
-0.489556819200516 -0.468561261892319 2.28700017929077 222 70 54
-0.48253458738327 -0.467766493558884 2.28299999237061 220 68 52
-0.475950658321381 -0.467381447553635 2.2810001373291 221 69 53
-0.470200598239899 -0.467815935611725 2.28299999237061 223 69 55
-0.464235872030258 -0.468045562505722 2.28400015830994 223 69 55
-0.457462787628174 -0.467455416917801 2.2810001373291 225 71 57
-0.451298803091049 -0.467480003833771 2.2810001373291 222 67 56
-0.445329189300537 -0.467709392309189 2.28200006484985 228 71 60
-0.438968628644943 -0.467528879642487 2.2810001373291 229 72 61
-0.43185368180275 -0.466528236865997 2.27600002288818 226 69 58
-0.425700277090073 -0.466552436351776 2.27600002288818 231 70 59
-0.419546157121658 -0.466576486825943 2.27600002288818 231 70 59
-0.413936138153076 -0.467215418815613 2.27900004386902 228 65 56
-0.408130288124084 -0.467649281024933 2.2810001373291 230 67 58
-0.401960402727127 -0.467673033475876 2.2810001373291 233 68 59
-0.395616233348846 -0.467491567134857 2.28000020980835 234 69 59
-0.388935059309006 -0.466899752616882 2.27700018882751 235 70 60
-0.383109897375107 -0.467333048582077 2.27900004386902 234 69 59
-0.377273201942444 -0.467766284942627 2.2810001373291 235 68 59
-0.371099501848221 -0.467789143323898 2.2810001373291 233 66 57
-0.364765077829361 -0.467606753110886 2.28000020980835 233 66 56
-0.358435243368149 -0.467424035072327 2.27900004386902 239 72 62
-0.352264732122421 -0.46744629740715 2.27900004386902 239 70 61
-0.345637857913971 -0.466852992773056 2.27600002288818 238 64 56
-0.339324772357941 -0.46666955947876 2.27500009536743 240 68 62
-0.3336021900177 -0.467306524515152 2.27800011634827 233 70 63
-0.327431321144104 -0.467327803373337 2.27800011634827 213 69 62
-0.498959332704544 -0.477828323841095 2.30200004577637 195 72 76
-0.489531964063644 -0.474739581346512 2.28700017929077 210 68 61
-0.481875836849213 -0.473311334848404 2.28000020980835 220 64 57
-0.47529998421669 -0.472920835018158 2.27800011634827 223 68 58
-0.469558119773865 -0.473360776901245 2.28000020980835 229 72 61
-0.462991714477539 -0.472970187664032 2.27800011634827 222 66 52
-0.456034421920776 -0.472164273262024 2.27400016784668 225 66 55
-0.4500872194767 -0.472396433353424 2.27500009536743 226 66 57
-0.444133907556534 -0.472628504037857 2.27600002288818 224 64 55
-0.437982022762299 -0.47265288233757 2.27600002288818 228 66 59
-0.430880814790726 -0.471638858318329 2.27100014686584 232 70 63
-0.424554020166397 -0.471455335617065 2.27000021934509 228 66 55
-0.418231874704361 -0.471271604299545 2.26900005340576 234 72 61
-0.412096053361893 -0.471295565366745 2.26900005340576 230 68 57
-0.406675100326538 -0.472150146961212 2.27300000190735 232 70 59
-0.40035080909729 -0.471966117620468 2.2720000743866 229 67 56
-0.393857657909393 -0.47157421708107 2.27000021934509 227 62 52
-0.387203723192215 -0.470974296331406 2.26700019836426 232 67 57
-0.381237745285034 -0.471205234527588 2.26800012588501 237 70 60
-0.375927060842514 -0.472267001867294 2.27300000190735 234 67 58
-0.369775235652924 -0.472289890050888 2.27300000190735 234 67 57
-0.363622575998306 -0.47231251001358 2.27300000190735 237 66 56
-0.357154756784439 -0.471919417381287 2.27100014686584 236 69 60
-0.350696951150894 -0.471525967121124 2.26900005340576 234 71 62
-0.344552963972092 -0.471547991037369 2.26900005340576 232 69 60
-0.338408231735229 -0.471569716930389 2.26900005340576 203 44 41
-0.332702100276947 -0.472214788198471 2.2720000743866 240 151 141
-0.49293178319931 -0.484281748533249 2.3030002117157 198 87 100
-0.482907682657242 -0.480521440505981 2.28500008583069 212 59 57
-0.475275248289108 -0.47907418012619 2.27800011634827 220 66 60
-0.468297719955444 -0.478257596492767 2.27400016784668 228 73 63
-0.461544424295425 -0.477651298046112 2.27100014686584 220 63 52
-0.454606115818024 -0.476834535598755 2.26700019836426 222 62 53
-0.448875695466995 -0.477279633283615 2.26900005340576 228 66 57
-0.442743539810181 -0.477304100990295 2.26900005340576 227 65 58
-0.436418324708939 -0.477118104696274 2.26800012588501 227 64 57
-0.429338812828064 -0.476090461015701 2.26300001144409 225 62 55
-0.422846734523773 -0.475693821907043 2.26100015640259 226 64 53
-0.416733384132385 -0.475717782974243 2.26100015640259 225 63 52
-0.410619288682938 -0.475741624832153 2.26100015640259 230 68 55
-0.405220150947571 -0.47660705447197 2.26500010490417 231 69 56
-0.398917615413666 -0.476420342922211 2.26400017738342 233 68 58
-0.392619639635086 -0.476233273744583 2.26300001144409 233 66 56
-0.385984897613525 -0.475625246763229 2.25999999046326 234 67 57
-0.380038052797318 -0.475858896970749 2.26100015640259 234 65 56
-0.374581098556519 -0.47672376036644 2.26500010490417 240 71 62
-0.368451088666916 -0.476746559143066 2.26500010490417 238 69 60
-0.362320333719254 -0.476769238710403 2.26500010490417 232 65 55
-0.355717033147812 -0.476160109043121 2.26200008392334 238 75 66
-0.349747538566589 -0.476392805576324 2.26300001144409 236 78 71
-0.343771874904633 -0.476625353097916 2.26400017738342 235 84 76
-0.476710915565491 -0.486717909574509 2.28500008583069 199 67 71
-0.467655301094055 -0.483760505914688 2.27100014686584 221 68 58
-0.460097253322601 -0.482293903827667 2.26400017738342 231 72 61
-0.453578978776932 -0.481892347335815 2.26200008392334 228 66 59
-0.44766429066658 -0.482129812240601 2.26300001144409 227 64 57
-0.441548436880112 -0.482154190540314 2.26300001144409 225 62 55
-0.435239464044571 -0.481965452432632 2.26200008392334 228 65 58
-0.42836606502533 -0.481137335300446 2.25800013542175 229 66 57
-0.42188760638237 -0.480735242366791 2.25600004196167 227 65 54
-0.415603578090668 -0.480546116828918 2.25500011444092 231 69 56
-0.409505873918533 -0.480569988489151 2.25500011444092 229 68 52
-0.403407424688339 -0.480593681335449 2.25500011444092 234 73 57
-0.397308319807053 -0.48061728477478 2.25500011444092 235 71 56
-0.39103490114212 -0.48042756319046 2.25400018692017 232 66 53
-0.385278582572937 -0.480877161026001 2.25600004196167 231 65 52
-0.379342645406723 -0.481113463640213 2.257000207901 233 62 52
-0.373896688222885 -0.481989115476608 2.26100015640259 240 66 58
-0.367289662361145 -0.481372356414795 2.25800013542175 233 67 61
-0.361018151044846 -0.481181859970093 2.257000207901 234 72 63
-0.354436755180359 -0.480564594268799 2.25400018692017 178 70 60
-0.469277918338776 -0.491619318723679 2.27900004386902 215 65 65
-0.460072696208954 -0.488408148288727 2.26400017738342 222 66 60
-0.452551960945129 -0.486922532320023 2.257000207901 226 64 57
-0.446453094482422 -0.486946940422058 2.257000207901 224 61 54
-0.43996325135231 -0.48653969168663 2.25500011444092 224 61 54
-0.433483570814133 -0.48613241314888 2.25300002098084 227 64 55
-0.426824301481247 -0.485509216785431 2.25 227 64 55
-0.420928627252579 -0.485749036073685 2.25100016593933 229 67 56
-0.415026813745499 -0.485988765954971 2.25200009346008 234 72 61
-0.408937335014343 -0.486012607812881 2.25200009346008 228 67 51
-0.402310460805893 -0.485388815402985 2.24900007247925 230 69 53
-0.396227657794952 -0.485412329435349 2.24900007247925 234 70 55
-0.390144139528275 -0.485435754060745 2.24900007247925 233 69 54
-0.384743005037308 -0.486322432756424 2.25300002098084 235 66 54
-0.378647297620773 -0.486345559358597 2.25300002098084 233 64 54
-0.372550874948502 -0.48636856675148 2.25300002098084 235 68 59
-0.365965753793716 -0.485743701457977 2.25 225 67 61
-0.35971599817276 -0.485550343990326 2.24900007247925 214 84 76
-0.475224405527115 -0.504107534885406 2.30800008773804 202 96 108
-0.462486565113068 -0.497142851352692 2.27600002288818 214 71 70
-0.452928483486176 -0.49345400929451 2.2590000629425 225 67 61
