0.672779440879822 -0.384114503860474 2.46500015258789 240 132 90
0.679435193538666 -0.384091407060623 2.46500015258789 232 118 83
0.686090409755707 -0.38406839966774 2.46500015258789 232 118 83
0.693026185035706 -0.384201467037201 2.46600008010864 229 115 81
0.699399471282959 -0.384023100137711 2.46500015258789 231 118 79
0.706339836120605 -0.384156554937363 2.46600008010864 231 116 77
0.713574528694153 -0.384446024894714 2.46800017356873 238 125 87
0.719943940639496 -0.384268313646317 2.46700000762939 240 124 90
0.72630786895752 -0.38409098982811 2.46600008010864 240 122 95
0.73236882686615 -0.383758127689362 2.46400022506714 241 129 97
0.739318549633026 -0.383892774581909 2.46500015258789 242 128 94
0.746273577213287 -0.384027749300003 2.46600008010864 240 127 88
0.753539085388184 -0.384318679571152 2.46800017356873 243 130 91
0.760199308395386 -0.384298473596573 2.46800017356873 246 131 100
0.767791509628296 -0.384745687246323 2.47100019454956 244 125 98
0.774146318435669 -0.384570389986038 2.47000002861023 244 123 95
0.780811786651611 -0.384551137685776 2.47000002861023 247 132 103
0.786202073097229 -0.383909553289413 2.46600008010864 241 128 100
0.792213976383209 -0.383579820394516 2.46400022506714 247 130 101
0.798215210437775 -0.383250385522842 2.46200013160706 248 134 100
0.805513501167297 -0.383544057607651 2.46400022506714 249 128 100
0.81183385848999 -0.383371084928513 2.46300005912781 245 127 98
0.818149149417877 -0.38319855928421 2.46200013160706 245 126 99
0.824794471263886 -0.383182168006897 2.46200013160706 253 134 109
0.831440150737762 -0.383166164159775 2.46200013160706 250 131 106
0.838767170906067 -0.38346192240715 2.46400022506714 255 139 116
0.844389855861664 -0.382979989051819 2.4610002040863 255 138 115
0.851725876331329 -0.383276611566544 2.46300005912781 253 137 113
0.859073221683502 -0.383573740720749 2.46500015258789 255 138 117
0.865729749202728 -0.38356015086174 2.46500015258789 255 140 116
0.872033059597015 -0.383391499519348 2.46400022506714 255 145 121
0.877975106239319 -0.383067727088928 2.46200013160706 255 142 117
0.884625673294067 -0.383055746555328 2.46200013160706 255 143 115
0.891277194023132 -0.383044242858887 2.46200013160706 255 144 116
0.89829432964325 -0.383188962936401 2.46300005912781 255 145 116
0.904583156108856 -0.383023113012314 2.46200013160706 255 145 116
0.911237597465515 -0.383013427257538 2.46200013160706 255 145 116
0.916774868965149 -0.382537662982941 2.45900011062622 255 145 113
0.923048079013824 -0.382373660802841 2.45800018310547 255 148 119
0.928938686847687 -0.382054686546326 2.45600008964539 254 143 115
0.936724662780762 -0.382514178752899 2.45900011062622 254 142 117
0.942993819713593 -0.382352203130722 2.45800018310547 255 143 118
0.949258804321289 -0.38219079375267 2.45700001716614 255 148 123
0.956687152385712 -0.382496744394302 2.45900011062622 255 150 122
0.963736116886139 -0.382647842168808 2.46000003814697 255 155 127
0.970792293548584 -0.382799714803696 2.4610002040863 255 149 121
0.976663827896118 -0.382485568523407 2.45900011062622 255 151 123
0.982926487922668 -0.382327824831009 2.45800018310547 255 155 127
0.987575054168701 -0.381548583507538 2.45300006866455 255 155 127
0.993819773197174 -0.381392329931259 2.4520001411438 255 152 124
1.00250911712646 -0.382170140743256 2.45700001716614 255 155 127
1.01081717014313 -0.382793188095093 2.4610002040863 255 156 128
1.01790869235992 -0.382950454950333 2.46200013160706 255 156 127
1.02375948429108 -0.38264188170433 2.46000003814697 255 156 127
1.02960169315338 -0.382334142923355 2.45800018310547 255 158 131
1.03543555736542 -0.382027268409729 2.45600008964539 255 160 133
1.04168546199799 -0.381876856088638 2.45500016212463 255 160 133
1.04750537872314 -0.381571739912033 2.45300006866455 255 163 140
1.05288732051849 -0.381111949682236 2.45000004768372 255 161 136
0.632809638977051 -0.39094066619873 2.46500015258789 214 116 101
0.638950049877167 -0.390599250793457 2.46300005912781 229 108 94
0.645079016685486 -0.390258133411407 2.4610002040863 234 108 94
0.651726305484772 -0.390234231948853 2.4610002040863 237 114 95
0.664478540420532 -0.389869719743729 2.45900011062622 255 239 138
0.670299828052521 -0.389370679855347 2.45600008964539 254 232 102
0.676380276679993 -0.389030456542969 2.45400023460388 255 233 106
0.683005928993225 -0.389007449150085 2.45400023460388 255 233 116
0.689631164073944 -0.388984650373459 2.45400023460388 255 233 116
0.743226587772369 -0.389127552509308 2.45600008964539 255 170 108
0.750160157680511 -0.389265477657318 2.45700001716614 255 171 114
0.756790995597839 -0.389245241880417 2.45700001716614 252 149 110
0.764043152332306 -0.38954222202301 2.45900011062622 252 150 114
0.770052492618561 -0.389205813407898 2.45700001716614 251 152 115
0.776999473571777 -0.389345079660416 2.45800018310547 250 150 115
0.782676577568054 -0.388851016759872 2.45500016212463 247 143 108
0.788980603218079 -0.388674229383469 2.45400023460388 253 146 108
0.795927822589874 -0.388814508914948 2.45500016212463 244 133 97
0.802880644798279 -0.38895520567894 2.45600008964539 247 127 94
0.809509515762329 -0.388937920331955 2.45600008964539 247 129 98
0.816138744354248 -0.388921082019806 2.45600008964539 246 125 98
0.823773324489594 -0.389379799365997 2.45900011062622 246 127 100
0.830411314964294 -0.389363825321198 2.45900011062622 250 131 106
0.836709439754486 -0.38918998837471 2.45800018310547 253 134 111
0.841630101203918 -0.388383269309998 2.45300006866455 254 135 114
0.847907721996307 -0.388210475444794 2.4520001411438 253 134 113
0.855922877788544 -0.388829737901688 2.45600008964539 252 133 112
0.863258063793182 -0.389132887125015 2.45800018310547 254 138 114
0.870250701904297 -0.389278173446655 2.45900011062622 249 133 108
0.875823199748993 -0.388790816068649 2.45600008964539 255 139 112
0.881739497184753 -0.388462334871292 2.45400023460388 255 145 117
0.88728404045105 -0.387976169586182 2.45100021362305 255 145 117
0.893907368183136 -0.3879654109478 2.45100021362305 255 147 118
0.900899052619934 -0.388113558292389 2.4520001411438 252 141 112
0.907897293567657 -0.388262301683426 2.45300006866455 255 145 116
0.914529144763947 -0.38825336098671 2.45300006866455 255 149 121
0.920411348342896 -0.387928575277328 2.45100021362305 255 143 118
0.926662027835846 -0.387762665748596 2.45000004768372 255 144 119
0.933289647102356 -0.387755692005157 2.45000004768372 255 146 121
0.939534902572632 -0.387591123580933 2.44900012016296 253 141 116
0.946162760257721 -0.387585520744324 2.44900012016296 255 144 119
0.953570127487183 -0.387897163629532 2.45100021362305 254 145 117
0.960598111152649 -0.388051182031631 2.4520001411438 255 152 122
0.966449797153473 -0.387731164693832 2.45000004768372 255 152 122
0.973086774349213 -0.387728482484818 2.45000004768372 255 148 120
0.979325711727142 -0.387568265199661 2.44900012016296 255 153 125
0.984755873680115 -0.387092292308807 2.44600009918213 255 153 125
0.989766538143158 -0.386458873748779 2.44200015068054 255 154 126
0.99802154302597 -0.387092232704163 2.44600009918213 253 148 118
1.00630044937134 -0.387726455926895 2.45000004768372 255 152 122
1.01418995857239 -0.388203293085098 2.45300006866455 255 152 124
1.02126574516296 -0.388364464044571 2.45400023460388 255 159 130
1.02625465393066 -0.38773512840271 2.45000004768372 255 153 127
1.03291082382202 -0.38773974776268 2.45000004768372 255 153 127
1.03787231445313 -0.387112230062485 2.44600009918213 255 158 131
1.04324162006378 -0.386643767356873 2.44300007820129 255 159 134
1.04902720451355 -0.3863345682621 2.44100022315979 255 158 133
1.0569669008255 -0.386817574501038 2.44400000572205 255 160 133
1.06579637527466 -0.387618154287338 2.44900012016296 245 154 124
0.621807157993317 -0.394906312227249 2.44800019264221 221 112 92
0.628421306610107 -0.394881993532181 2.44800019264221 228 114 89
0.635553538799286 -0.395180374383926 2.45000004768372 232 107 87
0.642171680927277 -0.395156234502792 2.45000004768372 232 105 86
0.649054229259491 -0.395293593406677 2.45100021362305 229 104 84
0.663103878498077 -0.395729869604111 2.45400023460388 253 233 105
0.668911874294281 -0.395222574472427 2.45100021362305 254 235 101
0.674427688121796 -0.394554287195206 2.44700002670288 255 236 101
0.680478155612946 -0.394208759069443 2.44500017166138 255 237 110
0.687641263008118 -0.394508302211761 2.44700002670288 255 239 112
0.694531261920929 -0.394646883010864 2.44800019264221 252 235 107
0.701712489128113 -0.394946813583374 2.45000004768372 254 237 105
0.708615303039551 -0.39508581161499 2.45100021362305 253 239 99
0.71523129940033 -0.395063847303391 2.45100021362305 254 237 107
0.721552431583405 -0.39488086104393 2.45000004768372 255 237 113
0.72757089138031 -0.39453712105751 2.44800019264221 255 237 109
0.733578145503998 -0.394193649291992 2.44600009918213 255 239 109
0.740785121917725 -0.394495129585266 2.44800019264221 255 238 108
0.748002588748932 -0.394796878099442 2.45000004768372 255 237 112
0.754306852817535 -0.394615441560745 2.44900012016296 255 238 122
0.761227011680603 -0.394756674766541 2.45000004768372 255 239 117
0.767525911331177 -0.394576042890549 2.44900012016296 255 242 110
0.774135410785675 -0.394556790590286 2.44900012016296 255 239 107
0.780426323413849 -0.394376903772354 2.44800019264221 255 240 112
0.787033319473267 -0.394358485937119 2.44800019264221 255 243 147
0.794613182544708 -0.39482370018959 2.45100021362305 219 131 72
0.800574958324432 -0.394483864307404 2.44900012016296 246 129 95
0.807514846324921 -0.394627690315247 2.45000004768372 247 130 96
0.812799155712128 -0.393966645002365 2.44600009918213 245 124 96
0.820742130279541 -0.394594550132751 2.45000004768372 248 127 100
0.827018618583679 -0.394417613744736 2.44900012016296 249 127 103
0.833970963954926 -0.394563257694244 2.45000004768372 249 129 108
0.839213669300079 -0.393904089927673 2.44600009918213 252 132 111
0.846510350704193 -0.394211769104004 2.44800019264221 250 131 110
0.853818118572235 -0.394519865512848 2.45000004768372 251 132 111
0.861137509346008 -0.394828498363495 2.4520001411438 255 136 113
0.867760717868805 -0.394815593957901 2.4520001411438 251 135 110
0.87331485748291 -0.394320249557495 2.44900012016296 251 135 108
0.879212856292725 -0.393986463546753 2.44700002670288 250 137 109
0.883653044700623 -0.393009334802628 2.44100022315979 251 138 110
0.890979290008545 -0.393320679664612 2.44300007820129 254 141 113
0.898317515850067 -0.393632739782333 2.44500017166138 254 141 113
0.90529727935791 -0.393784314393997 2.44600009918213 252 141 113
0.910419702529907 -0.393131673336029 2.44200015068054 255 146 118
0.917399227619171 -0.393284559249878 2.44300007820129 255 148 123
0.924385368824005 -0.393438071012497 2.44400000572205 255 144 119
0.930997371673584 -0.393431305885315 2.44400000572205 254 142 117
0.936460018157959 -0.392942279577255 2.44100022315979 254 142 117
0.943839490413666 -0.393258899450302 2.44300007820129 255 151 126
0.952009320259094 -0.393898099660873 2.44700002670288 255 147 119
0.958243727684021 -0.393733143806458 2.44600009918213 255 152 122
0.964474499225616 -0.393568992614746 2.44500017166138 255 153 123
0.969510018825531 -0.392922729253769 2.44100022315979 255 153 121
0.975725173950195 -0.39275997877121 2.44000005722046 255 153 121
0.981131851673126 -0.39227619767189 2.43700003623962 255 156 124
0.987334787845612 -0.392115145921707 2.43600010871887 255 155 123
0.994758367538452 -0.392437815666199 2.43800020217896 255 152 120
1.002605676651 -0.392922252416611 2.44100022315979 255 151 119
1.00964462757111 -0.393085598945618 2.44200015068054 255 152 124
1.01669132709503 -0.393249839544296 2.44300007820129 255 152 124
1.0233268737793 -0.393253922462463 2.44300007820129 255 150 124
1.02996492385864 -0.393258929252625 2.44300007820129 255 156 130
1.03490829467773 -0.392620950937271 2.43900012969971 255 156 130
1.03983247280121 -0.391983866691589 2.43500018119812 255 159 130
1.04602682590485 -0.391830593347549 2.43400001525879 255 163 132
1.05394852161407 -0.392322212457657 2.43700003623962 255 165 134
1.06188952922821 -0.392814844846725 2.44000005722046 255 161 128
1.06897389888763 -0.392986476421356 2.44100022315979 255 162 126
0.602673888206482 -0.402109563350677 2.45100021362305 223 112 94
0.607309460639954 -0.400772303342819 2.44300007820129 226 109 88
0.6126549243927 -0.399927467107773 2.43800020217896 232 107 87
0.618988752365112 -0.399738937616348 2.43700003623962 234 105 85
0.626600027084351 -0.400370627641678 2.44100022315979 234 105 83
0.63371354341507 -0.400674343109131 2.44300007820129 229 103 80
0.640312910079956 -0.400650173425674 2.44300007820129 234 103 81
0.64691174030304 -0.400626093149185 2.44300007820129 237 112 85
0.660107970237732 -0.400578439235687 2.44300007820129 254 231 106
0.66561359167099 -0.399899035692215 2.43900012969971 255 233 99
0.671372830867767 -0.399383842945099 2.43600010871887 253 236 104
0.677950322628021 -0.399360716342926 2.43600010871887 254 237 105
0.685370445251465 -0.399829655885696 2.43900012969971 251 233 103
0.692522704601288 -0.400134772062302 2.44100022315979 255 238 104
0.699398875236511 -0.400276094675064 2.44200015068054 253 236 102
0.706280171871185 -0.400417745113373 2.44300007820129 255 241 96
0.712874889373779 -0.400395750999451 2.44300007820129 254 238 102
0.718585789203644 -0.399882346391678 2.44000005722046 254 236 108
0.724874675273895 -0.399697005748749 2.43900012969971 255 237 109
0.730858027935028 -0.399348080158234 2.43700003623962 255 238 106
0.738343477249146 -0.39981883764267 2.44000005722046 255 239 105
0.744929194450378 -0.399798274040222 2.44000005722046 255 238 108
0.751514792442322 -0.399778038263321 2.44000005722046 255 238 114
0.757789611816406 -0.399594366550446 2.43900012969971 255 238 113
0.76405918598175 -0.399410992860794 2.43800020217896 255 241 107
0.770955502986908 -0.399555653333664 2.43900012969971 255 240 104
0.778176128864288 -0.399864494800568 2.44100022315979 255 241 103
0.785086095333099 -0.400009900331497 2.44200015068054 255 233 124
0.792650103569031 -0.400483220815659 2.44500017166138 215 132 66
0.797942399978638 -0.399810492992401 2.44100022315979 244 125 98
0.804861128330231 -0.399957090616226 2.44200015068054 247 130 101
0.809459686279297 -0.398957639932632 2.43600010871887 244 122 98
0.817041158676147 -0.399432748556137 2.43900012969971 250 128 104
0.822613000869751 -0.398925632238388 2.43600010871887 248 126 103
0.82987117767334 -0.399237841367722 2.43800020217896 246 126 103
0.836111307144165 -0.399059236049652 2.43700003623962 250 130 107
0.844421327114105 -0.399863630533218 2.44200015068054 247 128 103
0.851365089416504 -0.400013566017151 2.44300007820129 249 131 106
0.857963681221008 -0.400000214576721 2.44300007820129 252 134 107
0.864209234714508 -0.399823784828186 2.44200015068054 255 140 111
0.869380354881287 -0.399156719446182 2.43800020217896 253 136 107
0.874889969825745 -0.398653954267502 2.43500018119812 252 137 108
0.879298150539398 -0.397660613059998 2.42900013923645 254 138 111
0.888051450252533 -0.398632496595383 2.43500018119812 253 137 110
0.896470785140991 -0.399441212415695 2.44000005722046 255 142 117
0.902697503566742 -0.399268269538879 2.43900012969971 251 138 110
0.907801628112793 -0.398604959249496 2.43500018119812 250 137 109
0.914011895656586 -0.398433357477188 2.43400001525879 255 144 116
0.920974433422089 -0.398589909076691 2.43500018119812 255 144 116
0.927943706512451 -0.398746997117996 2.43600010871887 255 147 122
0.93338531255722 -0.398250102996826 2.43300008773804 255 146 121
0.940743923187256 -0.398572385311127 2.43500018119812 255 146 121
0.947336614131927 -0.398567914962769 2.43500018119812 255 147 119
0.953931093215942 -0.398564249277115 2.43500018119812 255 149 119
0.959738254547119 -0.398233979940414 2.43300008773804 255 155 123
0.965536296367645 -0.397904455661774 2.43100023269653 255 155 123
0.972525119781494 -0.398066759109497 2.43200016021729 255 155 120
0.978313267230988 -0.397738754749298 2.4300000667572 255 155 123
0.985308766365051 -0.397902727127075 2.43100023269653 255 151 121
0.991903483867645 -0.397903740406036 2.43100023269653 255 152 122
0.998089730739594 -0.397741973400116 2.4300000667572 255 154 124
1.00468623638153 -0.397744685411453 2.4300000667572 255 153 125
1.01170122623444 -0.39791202545166 2.43100023269653 255 150 124
1.01914274692535 -0.398243814706802 2.43300008773804 255 151 125
1.02448976039886 -0.397758215665817 2.4300000667572 252 148 122
1.03024744987488 -0.397437185049057 2.4280002117157 255 155 129
1.03599655628204 -0.397117018699646 2.42600011825562 255 162 133
1.04517579078674 -0.398107379674912 2.43200016021729 255 166 133
1.05309307575226 -0.398607611656189 2.43500018119812 255 165 132
1.05972397327423 -0.398617804050446 2.43500018119812 255 162 129
1.06548190116882 -0.398301512002945 2.43300008773804 255 166 129
1.07079148292542 -0.397822558879852 2.4300000667572 255 161 125
1.07653141021729 -0.397508293390274 2.4280002117157 240 146 127
0.586512386798859 -0.406803220510483 2.43900012969971 196 97 102
0.591646671295166 -0.405777513980865 2.43300008773804 214 98 91
0.598960757255554 -0.406252950429916 2.43600010871887 228 106 85
0.605544626712799 -0.406228125095367 2.43600010871887 230 106 82
0.611876428127289 -0.406036674976349 2.43500018119812 230 101 81
0.61769437789917 -0.405511826276779 2.43200016021729 224 97 77
0.624522089958191 -0.405654042959213 2.43300008773804 232 103 83
0.631095230579376 -0.405629634857178 2.43300008773804 230 101 79
0.638191998004913 -0.405938863754272 2.43500018119812 229 99 75
0.644769430160522 -0.405914694070816 2.43500018119812 229 104 77
0.657652378082275 -0.405700236558914 2.43400001525879 254 231 104
0.663679838180542 -0.405343294143677 2.43200016021729 255 234 100
0.669971585273743 -0.40515324473381 2.43100023269653 253 234 100
0.6762575507164 -0.404963374137878 2.4300000667572 255 236 102
0.683380484580994 -0.405273675918579 2.43200016021729 255 237 103
0.690230369567871 -0.405417561531067 2.43300008773804 253 236 102
0.6973717212677 -0.405728250741959 2.43500018119812 253 236 102
0.704234421253204 -0.405872583389282 2.43600010871887 255 239 103
0.710226774215698 -0.405517280101776 2.43400001525879 251 235 99
0.715913712978363 -0.404995739459991 2.43100023269653 255 238 104
0.72217857837677 -0.40480762720108 2.4300000667572 255 239 107
0.729337573051453 -0.405119717121124 2.43200016021729 255 238 106
0.737415015697479 -0.405931651592255 2.43700003623962 253 235 107
0.743992865085602 -0.405911058187485 2.43700003623962 255 237 109
0.75057065486908 -0.405890792608261 2.43700003623962 255 239 109
0.756216466426849 -0.405371278524399 2.43400001525879 255 239 107
0.762472808361053 -0.405185222625732 2.43300008773804 255 241 107
0.768723785877228 -0.404999524354935 2.43200016021729 255 242 106
0.77528840303421 -0.404980808496475 2.43200016021729 255 242 104
0.781853079795837 -0.404962450265884 2.43200016021729 255 235 124
0.788417935371399 -0.404944479465485 2.43200016021729 213 130 66
0.795309901237488 -0.405093431472778 2.43300008773804 246 126 103
0.802207469940186 -0.405242800712585 2.43400001525879 244 127 98
0.80778181552887 -0.404726684093475 2.43100023269653 253 131 107
0.814010202884674 -0.404544025659561 2.4300000667572 245 123 99
0.820571422576904 -0.404528319835663 2.4300000667572 247 125 102
0.827473402023315 -0.40467956662178 2.43100023269653 247 127 104
0.834381401538849 -0.404831320047379 2.43200016021729 253 133 110
0.841641008853912 -0.40514999628067 2.43400001525879 248 129 104
0.847866654396057 -0.404969811439514 2.43300008773804 247 129 102
0.853385210037231 -0.404457271099091 2.4300000667572 251 133 106
0.859242379665375 -0.404111862182617 2.4280002117157 249 132 103
0.865089416503906 -0.403766959905624 2.42600011825562 252 135 106
0.870926320552826 -0.403422623872757 2.42400002479553 247 132 103
0.877839624881744 -0.403578281402588 2.42500019073486 252 136 109
0.886947393417358 -0.404733002185822 2.43200016021729 255 139 112
0.894624352455139 -0.405222564935684 2.43500018119812 253 137 112
0.899357795715332 -0.404381483793259 2.4300000667572 251 137 112
0.903692603111267 -0.403374701738358 2.42400002479553 253 137 112
0.909873783588409 -0.403200656175613 2.42300009727478 255 142 114
0.917185366153717 -0.403526455163956 2.42500019073486 255 147 119
0.924509167671204 -0.403852909803391 2.42700004577637 255 150 121
0.93107807636261 -0.403847336769104 2.42700004577637 254 143 115
0.937648415565491 -0.403842478990555 2.42700004577637 254 143 115
0.943831264972687 -0.40367192029953 2.42600011825562 254 143 115
0.950402021408081 -0.4036685526371 2.42600011825562 255 149 121
0.95658016204834 -0.40349954366684 2.42500019073486 255 145 116
0.961562871932983 -0.402832120656967 2.4210000038147 255 150 118
0.967725455760956 -0.402664601802826 2.42000007629395 255 146 112
0.97307950258255 -0.402165234088898 2.41700005531311 255 156 122
0.981256365776062 -0.402831315994263 2.4210000038147 255 150 118
0.987416744232178 -0.402666330337524 2.42000007629395 255 150 120
0.993984878063202 -0.402668625116348 2.42000007629395 255 150 120
1.00055503845215 -0.402671724557877 2.42000007629395 255 150 122
1.00671136379242 -0.402509331703186 2.41900014877319 255 152 126
1.01412117481232 -0.402846992015839 2.4210000038147 255 156 130
1.01985812187195 -0.402520030736923 2.41900014877319 255 154 128
1.02728402614594 -0.402859568595886 2.4210000038147 255 153 125
1.03386914730072 -0.402867257595062 2.4210000038147 255 158 128
1.04217636585236 -0.403541564941406 2.42500019073486 255 159 129
1.04791307449341 -0.403218388557434 2.42300009727478 255 158 125
1.05451238155365 -0.403228998184204 2.42300009727478 255 156 123
1.06023859977722 -0.40290778875351 2.4210000038147 255 157 124
1.06683850288391 -0.402920454740524 2.4210000038147 255 156 126
1.07166790962219 -0.402268409729004 2.41700005531311 255 155 132
1.07647883892059 -0.401617377996445 2.41300010681152 246 147 126
0.572358012199402 -0.412787735462189 2.43500018119812 194 94 87
0.576802253723145 -0.411236852407455 2.42600011825562 222 96 80
0.583120763301849 -0.411042273044586 2.42500019073486 228 96 78
0.58991950750351 -0.411186724901199 2.42600011825562 230 100 82
0.597214698791504 -0.411670237779617 2.42900013923645 230 103 83
0.604028284549713 -0.411814749240875 2.4300000667572 235 106 84
0.61009281873703 -0.411451041698456 2.4280002117157 226 97 75
0.616399705410004 -0.411256849765778 2.42700004577637 228 99 77
0.622700750827789 -0.411062806844711 2.42600011825562 229 98 78
0.62977397441864 -0.411377251148224 2.4280002117157 229 98 76
0.636071026325226 -0.411183476448059 2.42700004577637 234 102 78
0.642362177371979 -0.410989880561829 2.42600011825562 231 106 79
0.654386520385742 -0.410264492034912 2.42200016975403 254 231 106
0.660927414894104 -0.410240858793259 2.42200016975403 255 233 102
0.667468011379242 -0.410217463970184 2.42200016975403 251 232 98
0.673729777336121 -0.410024851560593 2.4210000038147 252 233 99
0.680547714233398 -0.410171210765839 2.42200016975403 250 231 97
0.687654495239258 -0.410487085580826 2.42400002479553 253 234 100
0.695058047771454 -0.410972565412521 2.42700004577637 255 238 104
0.701321303844452 -0.410780936479568 2.42600011825562 253 237 101
0.707287013530731 -0.41042023897171 2.42400002479553 250 234 98
0.712947189807892 -0.409890562295914 2.4210000038147 254 237 105
0.720076978206635 -0.410207748413086 2.42300009727478 255 238 106
0.726917445659637 -0.41035583615303 2.42400002479553 252 234 104
0.734671056270599 -0.411012172698975 2.4280002117157 253 235 107
0.741530239582062 -0.411160856485367 2.42900013923645 255 237 109
0.748702764511108 -0.41147917509079 2.43100023269653 255 238 108
0.754332602024078 -0.410951465368271 2.4280002117157 255 238 106
0.759946405887604 -0.41042423248291 2.42500019073486 255 240 104
0.766176223754883 -0.41023588180542 2.42400002479553 255 241 96
0.773038327693939 -0.410386383533478 2.42500019073486 255 241 107
0.779584527015686 -0.410368114709854 2.42500019073486 255 236 123
0.792677581310272 -0.410332769155502 2.42500019073486 246 124 100
0.799554049968719 -0.410484910011292 2.42600011825562 242 123 98
0.805771708488464 -0.410299122333527 2.42500019073486 245 123 99
0.812654376029968 -0.41045218706131 2.42600011825562 249 127 103
0.818867564201355 -0.410267412662506 2.42500019073486 240 121 96
0.824735403060913 -0.409913927316666 2.42300009727478 247 128 103
0.831622183322906 -0.410068422555923 2.42400002479553 251 132 107
0.837823569774628 -0.409885227680206 2.42300009727478 247 129 102
0.844368457794189 -0.409871637821198 2.42300009727478 244 126 99
0.8502117395401 -0.409520298242569 2.4210000038147 249 132 101
0.856045186519623 -0.409169614315033 2.41900014877319 252 135 104
0.861511945724487 -0.40865033864975 2.41600012779236 251 134 103
0.86840033531189 -0.408808201551437 2.41700005531311 250 135 106
0.876381099224091 -0.409474045038223 2.4210000038147 254 138 113
0.88438469171524 -0.410140573978424 2.42500019073486 255 139 114
0.890206336975098 -0.409792870283127 2.42300009727478 248 132 107
0.895648121833801 -0.409276634454727 2.42000007629395 254 138 113
0.901447951793671 -0.408930361270905 2.41800022125244 253 137 112
0.907613456249237 -0.408753782510757 2.41700005531311 254 138 111
0.914531350135803 -0.408916175365448 2.41800022125244 250 137 108
0.921456038951874 -0.409079194068909 2.41900014877319 255 143 114
0.928003907203674 -0.409073829650879 2.41900014877319 255 143 114
0.934553325176239 -0.409069269895554 2.41900014877319 253 142 114
0.939158976078033 -0.408219814300537 2.41400003433228 252 141 113
0.945698082447052 -0.408216774463654 2.41400003433228 255 146 118
0.952238798141479 -0.408214420080185 2.41400003433228 255 146 117
0.957987010478973 -0.407874703407288 2.41200017929077 252 141 112
0.963326334953308 -0.407366663217545 2.40900015830994 253 143 111
0.968651354312897 -0.406859457492828 2.4060001373291 255 145 113
0.97639387845993 -0.407367676496506 2.40900015830994 255 146 117
0.981706619262695 -0.406862169504166 2.4060001373291 255 148 119
0.989058911800385 -0.407202959060669 2.40800023078918 255 151 123
0.997251212596893 -0.407882899045944 2.41200017929077 255 149 121
1.00546765327454 -0.408563762903214 2.41600012779236 255 154 128
1.0120325088501 -0.408569067716599 2.41600012779236 254 147 121
1.01649177074432 -0.407729715108871 2.41100001335144 253 146 120
1.02389693260193 -0.408075153827667 2.41300010681152 255 154 128
1.03046131134033 -0.408083289861679 2.41300010681152 255 155 127
1.03788816928864 -0.408430695533752 2.41500020027161 255 151 123
1.04403102397919 -0.408271700143814 2.41400003433228 255 157 128
1.05060684680939 -0.408282846212387 2.41400003433228 255 150 120
1.05674755573273 -0.408125817775726 2.41300010681152 255 156 126
1.06332671642303 -0.408139050006866 2.41300010681152 252 151 122
1.06857883930206 -0.40764582157135 2.41000008583069 255 150 122
1.07381761074066 -0.40715366601944 2.40700006484985 255 156 130
1.07904362678528 -0.40666252374649 2.40400004386902 255 162 135
1.08651483058929 -0.407018333673477 2.4060001373291 251 154 133
0.573978006839752 -0.420594334602356 2.44200015068054 199 108 105
0.576063811779022 -0.417296588420868 2.42300009727478 218 91 72
0.580931603908539 -0.416065871715546 2.41600012779236 226 94 76
0.587462902069092 -0.416040778160095 2.41600012779236 228 96 78
0.594976902008057 -0.416704535484314 2.42000007629395 227 98 78
0.601517677307129 -0.416679531335831 2.42000007629395 230 101 79
0.608309030532837 -0.416826814413071 2.4210000038147 229 100 78
0.614597320556641 -0.416629940271378 2.42000007629395 231 102 80
0.620622932910919 -0.416260987520218 2.41800022125244 230 101 81
0.626896440982819 -0.416064292192459 2.41700005531311 224 97 77
0.633688151836395 -0.416212111711502 2.41800022125244 229 97 79
0.639690399169922 -0.415843695402145 2.41600012779236 218 93 73
0.652471482753754 -0.415623664855957 2.41500020027161 252 232 104
0.659266650676727 -0.41577211022377 2.41600012779236 255 234 103
0.665791153907776 -0.415748625993729 2.41600012779236 251 232 100
0.671758651733398 -0.415381193161011 2.41400003433228 254 235 103
0.678557932376862 -0.415530264377594 2.41500020027161 253 234 102
0.685646057128906 -0.415851593017578 2.41700005531311 253 234 102
0.69245833158493 -0.416001111268997 2.41800022125244 253 234 102
0.698408305644989 -0.415634661912918 2.41600012779236 251 235 99
0.704055547714233 -0.415096580982208 2.41300010681152 252 236 100
0.710275292396545 -0.414902836084366 2.41200017929077 254 237 105
0.717083871364594 -0.415053397417068 2.41300010681152 254 236 106
0.723897576332092 -0.415204286575317 2.41400003433228 253 236 108
0.731927096843719 -0.41604346036911 2.41900014877319 255 237 109
0.739372849464417 -0.416538864374161 2.42200016975403 255 237 109
0.746834814548492 -0.417034566402435 2.42500019073486 255 236 111
0.752138257026672 -0.416326880455017 2.4210000038147 255 239 107
0.757733583450317 -0.415791571140289 2.41800022125244 255 240 102
0.763628721237183 -0.415428549051285 2.41600012779236 255 241 99
0.77015095949173 -0.415409952402115 2.41600012779236 255 238 99
0.776994585990906 -0.415563642978668 2.41700005531311 255 242 118
0.790372312068939 -0.415700376033783 2.41800022125244 240 116 93
0.79657107591629 -0.415511459112167 2.41700005531311 244 119 100
0.803097248077393 -0.415495008230209 2.41700005531311 246 124 100
0.810293853282928 -0.415822863578796 2.41900014877319 243 121 97
0.81716388463974 -0.415979206562042 2.42000007629395 245 126 101
0.823359131813049 -0.415792316198349 2.41900014877319 243 124 99
0.82920640707016 -0.415434032678604 2.41700005531311 245 126 101
0.834697723388672 -0.41490438580513 2.41400003433228 247 129 104
0.840870440006256 -0.414719134569168 2.41300010681152 247 129 102
0.847389698028564 -0.414706319570541 2.41300010681152 251 133 104
0.852494299411774 -0.414006620645523 2.40900015830994 252 135 104
0.858291149139404 -0.41365122795105 2.40700006484985 250 133 104
0.865515172481537 -0.413983911275864 2.40900015830994 250 135 106
0.873836934566498 -0.41483262181282 2.41400003433228 250 134 109
0.881457328796387 -0.415338277816772 2.41700005531311 251 135 110
0.886523365974426 -0.414641737937927 2.41300010681152 249 133 108
0.892308950424194 -0.414289504289627 2.41100001335144 254 138 113
0.898084998130798 -0.413937985897064 2.40900015830994 253 135 110
0.904602468013763 -0.413930803537369 2.40900015830994 252 136 109
0.911121129989624 -0.413924276828766 2.40900015830994 255 140 113
0.918022155761719 -0.414090305566788 2.41000008583069 253 140 111
0.924930036067963 -0.414257049560547 2.41100001335144 253 140 112
0.932231187820435 -0.414596378803253 2.41300010681152 250 139 111
0.93759948015213 -0.414077341556549 2.41000008583069 255 143 118
0.944912016391754 -0.414418190717697 2.41200017929077 252 140 115
0.951053619384766 -0.414244383573532 2.41100001335144 255 144 116
0.956397354602814 -0.413727790117264 2.40800023078918 252 141 112
0.961326718330383 -0.413040101528168 2.40400004386902 255 148 119
0.966236352920532 -0.412353277206421 2.40000009536743 255 144 115
0.973558187484741 -0.412698209285736 2.40200018882751 249 138 109
0.978444635868073 -0.412013053894043 2.39800000190735 253 142 114
0.985776126384735 -0.412359714508057 2.40000009536743 255 146 118
0.993120789527893 -0.412707269191742 2.40200018882751 255 148 120
1.00131094455719 -0.413399368524551 2.4060001373291 255 149 121
1.00743067264557 -0.41323333978653 2.40500020980835 255 150 122
1.01312589645386 -0.412896364927292 2.40300011634827 255 153 123
1.02008593082428 -0.413075834512711 2.40400004386902 255 149 123
1.02662670612335 -0.413084447383881 2.40400004386902 255 152 126
1.03274083137512 -0.412922233343124 2.40300011634827 255 149 123
1.03798699378967 -0.41241729259491 2.40000009536743 255 150 124
1.04539620876312 -0.412772655487061 2.40200018882751 255 151 123
1.05281901359558 -0.413128972053528 2.40400004386902 255 151 123
1.05981528759003 -0.413314610719681 2.40500020980835 255 154 125
1.06504666805267 -0.412813812494278 2.40200018882751 255 157 127
1.07071089744568 -0.412485927343369 2.40000009536743 255 161 132
1.07726550102234 -0.41250291466713 2.40000009536743 255 159 129
1.08472681045532 -0.412864804267883 2.40200018882751 255 158 131
1.09083950519562 -0.412712097167969 2.40100002288818 255 158 137
1.09969282150269 -0.413592040538788 2.4060001373291 242 150 133
0.579704165458679 -0.421739637851715 2.41100001335144 207 102 90
0.586222052574158 -0.421714454889297 2.41100001335144 230 99 79
0.5924933552742 -0.421514451503754 2.41000008583069 230 99 77
0.598758697509766 -0.421314597129822 2.40900015830994 226 98 74
0.604766607284546 -0.420939922332764 2.40700006484985 226 100 76
0.611779034137726 -0.421264916658401 2.40900015830994 232 106 82
0.618288338184357 -0.421240240335464 2.40900015830994 233 104 84
0.625056385993958 -0.421390533447266 2.41000008583069 230 104 81
0.631305158138275 -0.421191304922104 2.40900015830994 230 100 82
0.637812912464142 -0.421167135238647 2.40900015830994 215 92 73
0.650016248226166 -0.420594692230225 2.4060001373291 249 229 101
0.657060027122498 -0.420920640230179 2.40800023078918 249 230 96
0.663838803768158 -0.421071946620941 2.40900015830994 250 231 97
0.670065999031067 -0.420873939990997 2.40800023078918 251 232 98
0.676568329334259 -0.420850902795792 2.40800023078918 252 233 99
0.682786643505096 -0.420653283596039 2.40700006484985 252 233 99
0.688999354839325 -0.420455992221832 2.4060001373291 253 234 100
0.6952064037323 -0.420259028673172 2.40500020980835 252 236 100
0.701699495315552 -0.420237004756927 2.40500020980835 250 233 99
0.708781361579895 -0.420564770698547 2.40700006484985 251 233 103
0.715576767921448 -0.42071807384491 2.40800023078918 252 235 105
0.721477687358856 -0.420347541570663 2.4060001373291 252 235 107
0.72827559709549 -0.420501470565796 2.40700006484985 252 234 106
0.735689282417297 -0.421005100011826 2.41000008583069 254 236 108
0.743119180202484 -0.421509027481079 2.41300010681152 253 235 105
0.749011933803558 -0.421139895915985 2.41100001335144 254 237 105
0.754580676555634 -0.420596569776535 2.40800023078918 254 239 99
0.760449290275574 -0.420228242874146 2.4060001373291 253 239 94
0.767582416534424 -0.420559018850327 2.40800023078918 255 236 102
0.775047779083252 -0.421064764261246 2.41100001335144 255 236 123
0.782529771327972 -0.421570956707001 2.41400003433228 233 129 90
0.787740111351013 -0.420855075120926 2.41000008583069 241 123 96
0.793917894363403 -0.420663684606552 2.40900015830994 239 118 91
0.799093902111053 -0.419948875904083 2.40500020980835 242 118 94
0.806258380413055 -0.420282155275345 2.40700006484985 244 120 96
0.812083661556244 -0.419917643070221 2.40500020980835 243 121 98
0.819259941577911 -0.420251965522766 2.40700006484985 244 125 100
0.82473236322403 -0.419713884592056 2.40400004386902 246 127 102
0.830880701541901 -0.419525504112244 2.40300011634827 246 127 102
0.836675763130188 -0.419163137674332 2.40100002288818 241 123 96
0.844216704368591 -0.419674217700958 2.40400004386902 245 128 99
0.850005269050598 -0.419313013553619 2.40200018882751 250 133 104
0.855427324771881 -0.418777853250504 2.39900016784668 248 133 104
0.861911714076996 -0.41876694560051 2.39900016784668 251 136 107
0.869121074676514 -0.419105768203735 2.40100002288818 246 132 107
0.877436399459839 -0.419968962669373 2.4060001373291 253 137 112
0.882840692996979 -0.41943633556366 2.40300011634827 250 134 110
0.888970017433167 -0.419253528118134 2.40200018882751 247 131 106
0.894722402095795 -0.41889676451683 2.40000009536743 254 135 112
0.901591598987579 -0.419064342975616 2.40100002288818 254 138 111
0.907711148262024 -0.418883591890335 2.40000009536743 251 135 108
0.914588570594788 -0.419052600860596 2.40100002288818 252 139 111
0.921472907066345 -0.419222414493561 2.40200018882751 255 143 115
0.928364098072052 -0.419392913579941 2.40300011634827 253 142 114
0.932927906513214 -0.418516993522644 2.39800000190735 255 144 116
0.940208733081818 -0.418863624334335 2.40000009536743 254 143 115
0.947107553482056 -0.419036418199539 2.40100002288818 253 142 113
0.954410791397095 -0.419384658336639 2.40300011634827 254 143 114
0.95972740650177 -0.41886106133461 2.40000009536743 251 140 111
0.965432226657867 -0.418512791395187 2.39800000190735 255 145 116
0.971533536911011 -0.418339967727661 2.3970000743866 251 140 111
0.97640734910965 -0.417644381523132 2.39300012588501 255 144 116
0.982494056224823 -0.417473345994949 2.39200019836426 255 147 118
0.988990902900696 -0.417477697134018 2.39200019836426 255 145 117
0.995906233787537 -0.417657405138016 2.39300012588501 255 149 119
1.00199151039124 -0.417489051818848 2.39200019836426 255 149 119
1.00849556922913 -0.417496204376221 2.39200019836426 255 150 122
1.0162752866745 -0.418027937412262 2.39500021934509 255 150 124
1.02450084686279 -0.418735206127167 2.39900016784668 255 152 124
1.03060221672058 -0.418570786714554 2.39800000190735 253 146 120
1.03626847267151 -0.418232858181 2.39600014686584 255 148 122
1.04149162769318 -0.417721301317215 2.39300012588501 255 154 126
1.04845297336578 -0.417909055948257 2.39400005340576 255 155 127
1.05542314052582 -0.418097972869873 2.39500021934509 255 155 125
1.06151497364044 -0.417938709259033 2.39400005340576 255 156 123
1.06760478019714 -0.417780637741089 2.39300012588501 255 159 129
1.07414138317108 -0.41779825091362 2.39300012588501 255 159 130
1.08158457279205 -0.418166130781174 2.39500021934509 255 156 127
1.08722507953644 -0.417836844921112 2.39300012588501 255 153 129
1.09605765342712 -0.418730944395065 2.39800000190735 255 156 134
1.10308241844177 -0.418927907943726 2.39900016784668 255 159 134
1.11381673812866 -0.420523107051849 2.40800023078918 250 151 130
0.584981203079224 -0.427360385656357 2.4060001373291 219 104 75
0.590747475624084 -0.426802426576614 2.40300011634827 225 100 80
0.596745312213898 -0.426422089338303 2.40100002288818 228 101 81
0.60323429107666 -0.426397204399109 2.40100002288818 225 96 68
0.609976649284363 -0.426549971103668 2.40200018882751 230 102 78
0.616467118263245 -0.426525264978409 2.40200018882751 231 102 80
0.622957110404968 -0.426500737667084 2.40200018882751 226 100 76
0.629446506500244 -0.426476329565048 2.40200018882751 228 98 80
0.635935366153717 -0.42645201086998 2.40200018882751 235 115 92
0.6478311419487 -0.425693929195404 2.39800000190735 250 230 100
0.654307842254639 -0.425670236349106 2.39800000190735 251 233 97
0.662162005901337 -0.426534324884415 2.40300011634827 251 232 98
0.668929755687714 -0.426688551902771 2.40400004386902 250 232 96
0.675421476364136 -0.426665455102921 2.40400004386902 249 231 95
0.680778384208679 -0.425932735204697 2.40000009536743 250 232 96
0.686685979366302 -0.425555258989334 2.39800000190735 253 235 97
0.692871749401093 -0.425355643033981 2.3970000743866 251 235 97
0.699635326862335 -0.425511091947556 2.39800000190735 250 234 98
0.706993043422699 -0.426021724939346 2.40100002288818 251 233 103
0.713772475719452 -0.426177769899368 2.40200018882751 251 234 104
0.719657599925995 -0.42580184340477 2.40000009536743 253 236 108
0.725834548473358 -0.425603747367859 2.39900016784668 255 237 109
0.732921659946442 -0.425938099622726 2.40100002288818 253 235 105
0.740019619464874 -0.426272869110107 2.40300011634827 253 236 104
0.746817708015442 -0.426430583000183 2.40400004386902 253 236 102
0.752681314945221 -0.426056504249573 2.40200018882751 253 236 102
0.758850276470184 -0.42586025595665 2.40100002288818 255 238 106
0.765332758426666 -0.425841778516769 2.40100002288818 255 237 113
0.771815240383148 -0.42582368850708 2.40100002288818 255 236 133
0.778946578502655 -0.42616081237793 2.40300011634827 229 125 85
0.784781455993652 -0.425788938999176 2.40100002288818 240 123 94
0.790605783462524 -0.425417572259903 2.39900016784668 242 119 91
0.795755326747894 -0.424692094326019 2.39500021934509 247 123 99
0.802558362483978 -0.424853682518005 2.39600014686584 245 121 97
0.809029757976532 -0.42483851313591 2.39600014686584 241 119 96
0.81550145149231 -0.424823760986328 2.39600014686584 240 118 95
0.820944726467133 -0.424277752637863 2.39300012588501 242 123 98
0.827063918113709 -0.424086898565292 2.39200019836426 244 125 100
0.832829833030701 -0.423719257116318 2.39000010490417 245 127 100
0.839990496635437 -0.424061417579651 2.39200019836426 244 126 99
0.84716260433197 -0.42440402507782 2.39400005340576 245 127 100
0.85327672958374 -0.424215495586395 2.39300012588501 245 127 100
0.859386324882507 -0.424027621746063 2.39200019836426 249 131 104
0.865853488445282 -0.424017578363419 2.39200019836426 252 136 111
0.874509632587433 -0.425071686506271 2.39800000190735 249 133 108
0.879893004894257 -0.424531191587448 2.39500021934509 247 131 106
0.886371493339539 -0.424523174762726 2.39500021934509 246 130 105
0.891732811927795 -0.42398402094841 2.39200019836426 249 133 108
0.898581147193909 -0.424154609441757 2.39300012588501 250 134 107
0.904301583766937 -0.4237941801548 2.39100003242493 250 135 106
0.911155343055725 -0.423966228961945 2.39200019836426 251 138 109
0.917248725891113 -0.423784524202347 2.39100003242493 254 141 112
0.924497246742249 -0.42413529753685 2.39300012588501 252 142 110
0.930201828479767 -0.423777848482132 2.39100003242493 255 145 116
0.937464535236359 -0.424130231142044 2.39300012588501 254 143 114
0.94434529542923 -0.424306154251099 2.39400005340576 253 140 111
0.951630413532257 -0.42466014623642 2.39600014686584 255 143 114
0.957328617572784 -0.424306005239487 2.39400005340576 251 138 109
0.963018119335175 -0.423952758312225 2.39200019836426 255 145 116
0.969103932380676 -0.42377758026123 2.39100003242493 255 143 114
0.975186467170715 -0.423603296279907 2.39000010490417 253 142 114
0.981265902519226 -0.423429906368256 2.38900017738342 255 144 115
0.986515045166016 -0.422902911901474 2.38600015640259 255 147 118
0.99258279800415 -0.422731429338455 2.38500022888184 255 156 126
0.998228430747986 -0.422383576631546 2.38300013542175 252 144 112
1.00597381591797 -0.422922939062119 2.38600015640259 255 151 121
1.01288938522339 -0.423108786344528 2.38700008392334 255 150 122
1.02024018764496 -0.423472911119461 2.38900017738342 255 150 122
1.02674508094788 -0.423483520746231 2.38900017738342 255 153 127
1.03238773345947 -0.423140645027161 2.38700008392334 255 153 127
1.0384578704834 -0.422976076602936 2.38600015640259 255 157 129
1.04496347904205 -0.422989875078201 2.38600015640259 255 154 126
1.05235350131989 -0.423359274864197 2.38800001144409 255 153 123
1.05754065513611 -0.422843426465988 2.38500022888184 255 156 126
1.06316065788269 -0.422505855560303 2.38300013542175 255 153 125
1.06922221183777 -0.422346740961075 2.382000207901 251 145 117
1.07799136638641 -0.423252642154694 2.38700008392334 255 151 125
1.08451986312866 -0.423273205757141 2.38700008392334 255 148 122
1.09242308139801 -0.423826962709427 2.39000010490417 255 150 126
1.09896719455719 -0.423849910497665 2.39000010490417 255 151 126
1.10921573638916 -0.425292938947678 2.39800000190735 255 152 131
1.1250958442688 -0.428865820169449 2.41800022125244 254 157 140
1.14389777183533 -0.433504581451416 2.44400000572205 247 162 152
0.588509798049927 -0.431691110134125 2.39400005340576 200 88 73
0.595229148864746 -0.431846410036087 2.39500021934509 221 98 79
0.60094827413559 -0.431280523538589 2.39200019836426 230 101 73
0.607920348644257 -0.431616276502609 2.39400005340576 227 97 73
0.614132761955261 -0.431411236524582 2.39300012588501 234 104 80
0.621376514434814 -0.431927472352982 2.39600014686584 225 97 73
0.626801729202271 -0.431182026863098 2.39200019836426 232 103 81
0.632999002933502 -0.430977523326874 2.39100003242493 236 119 85
0.639190435409546 -0.430773198604584 2.39000010490417 253 229 109
0.646456658840179 -0.431290060281754 2.39300012588501 249 230 96
0.65319287776947 -0.431446611881256 2.39400005340576 250 232 93
0.660209715366364 -0.431783527135849 2.39600014686584 250 232 96
0.666680574417114 -0.431760281324387 2.39600014686584 252 234 98
0.672869980335236 -0.431557059288025 2.39500021934509 253 235 99
0.677919209003448 -0.430633306503296 2.39000010490417 249 231 95
0.684086501598358 -0.430430680513382 2.38900017738342 249 231 95
0.690248131752014 -0.430228263139725 2.38800001144409 251 233 95
0.697863042354584 -0.430927038192749 2.39200019836426 253 234 100
0.705204844474792 -0.431445837020874 2.39500021934509 252 235 103
0.711968421936035 -0.431604623794556 2.39600014686584 252 235 103
0.717837691307068 -0.431223332881927 2.39400005340576 250 233 101
0.722485840320587 -0.430121868848801 2.38800001144409 252 234 104
0.729848980903625 -0.430641978979111 2.39100003242493 252 235 103
0.736612439155579 -0.430802166461945 2.39200019836426 252 235 101
0.744623780250549 -0.43168306350708 2.3970000743866 254 237 105
0.750468850135803 -0.431303650140762 2.39500021934509 252 234 104
0.756303250789642 -0.43092468380928 2.39300012588501 255 238 108
0.762764513492584 -0.430906265974045 2.39300012588501 253 234 109
0.769547283649445 -0.431068390607834 2.39400005340576 255 239 111
0.776660144329071 -0.431411027908325 2.39600014686584 235 126 90
0.782149791717529 -0.430853873491287 2.39300012588501 238 115 88
0.787623405456543 -0.43029710650444 2.39000010490417 240 119 92
0.792416870594025 -0.429380923509598 2.38500022888184 240 119 92
0.798858523368835 -0.429365366697311 2.38500022888184 241 120 93
0.804962933063507 -0.429170280694962 2.3840000629425 242 120 97
0.811743199825287 -0.429335832595825 2.38500022888184 239 117 94
0.817500293254852 -0.428961843252182 2.38300013542175 242 123 98
0.823593080043793 -0.428768455982208 2.382000207901 243 124 97
0.829332530498505 -0.428395599126816 2.38000011444092 247 128 101
0.836817920207977 -0.428923398256302 2.38300013542175 248 129 102
0.845381855964661 -0.429991632699966 2.38900017738342 249 130 103
0.851839601993561 -0.429980576038361 2.38900017738342 248 130 103
0.857220411300659 -0.429430186748505 2.38600015640259 250 132 107
0.862948060035706 -0.429060459136963 2.3840000629425 243 125 100
0.870853960514069 -0.429771184921265 2.38800001144409 244 126 101
0.876578330993652 -0.42940279841423 2.38600015640259 251 132 109
0.883403122425079 -0.429574906826019 2.38700008392334 249 130 107
0.888743579387665 -0.42902797460556 2.3840000629425 246 128 103
0.896321952342987 -0.429561465978622 2.38700008392334 250 134 107
0.902026891708374 -0.429195940494537 2.38500022888184 248 133 104
0.908484220504761 -0.429191023111343 2.38500022888184 246 134 102
0.913792192935944 -0.428647011518478 2.382000207901 252 140 108
0.919471800327301 -0.428283751010895 2.38000011444092 247 135 103
0.925531089305878 -0.42810121178627 2.37900018692017 245 135 103
0.933153808116913 -0.42863929271698 2.382000207901 251 138 109
0.941977739334106 -0.429717987775803 2.38800001144409 249 136 107
0.948850274085999 -0.429897874593735 2.38900017738342 250 137 108
0.954130530357361 -0.429358720779419 2.38600015640259 251 138 110
0.958993971347809 -0.428640574216843 2.382000207901 251 138 110
0.965053558349609 -0.428463071584702 2.38100004196167 255 143 114
0.971925854682922 -0.428646415472031 2.382000207901 255 144 115
0.97757363319397 -0.428290784358978 2.38000011444092 253 142 114
0.983626306056976 -0.428116053342819 2.37900018692017 252 141 113
0.98967581987381 -0.427942216396332 2.37800002098084 255 146 117
0.995303452014923 -0.427589476108551 2.37600016593933 251 143 113
1.00345242023468 -0.42831739783287 2.38000011444092 255 153 123
1.01035273075104 -0.428506463766098 2.38100004196167 255 150 120
1.01768827438354 -0.428876578807831 2.38300013542175 255 153 123
1.02374815940857 -0.428707808256149 2.382000207901 255 155 127
1.02980530261993 -0.428540050983429 2.38100004196167 255 150 122
1.03629529476166 -0.428553313016891 2.38100004196167 254 148 120
1.04235029220581 -0.428387671709061 2.38000011444092 255 152 124
1.04884362220764 -0.428403109312058 2.38000011444092 255 150 120
1.05356657505035 -0.427699655294418 2.37600016593933 255 152 122
1.05960941314697 -0.427537322044373 2.375 255 152 124
