0.841376960277557 -0.465634614229202 2.18400001525879 254 131 114
0.846900522708893 -0.46542301774025 2.18300008773804 255 134 118
0.852811098098755 -0.465425550937653 2.18300008773804 255 136 117
0.859116733074188 -0.465642154216766 2.18400001525879 255 135 116
0.865429818630219 -0.465859800577164 2.18500018119812 255 137 116
0.870154857635498 -0.465225458145142 2.18200016021729 255 132 113
0.874865531921387 -0.464592069387436 2.17900013923645 255 140 116
0.880774676799774 -0.464599341154099 2.17900013923645 255 255 156
0.885872066020966 -0.464181154966354 2.17700004577637 255 255 137
0.891780078411102 -0.464190423488617 2.17700004577637 255 255 133
0.897278010845184 -0.463987469673157 2.17600011825562 255 255 140
0.904017984867096 -0.464425295591354 2.1780002117157 255 255 145
0.911188900470734 -0.465077430009842 2.18099999427795 255 255 144
0.918378710746765 -0.46573069691658 2.18400001525879 255 255 141
0.92474102973938 -0.465958714485168 2.18500018119812 255 255 145
0.93025928735733 -0.465761244297028 2.18400001525879 255 255 149
0.936203598976135 -0.465778201818466 2.18400001525879 255 255 150
0.942150950431824 -0.4657963514328 2.18400001525879 237 235 122
0.957372665405273 -0.464578211307526 2.1780002117157 233 124 77
0.963757634162903 -0.464814424514771 2.17900013923645 239 124 79
0.970596373081207 -0.465265274047852 2.18099999427795 255 126 100
0.977001786231995 -0.465504169464111 2.18200016021729 255 131 107
0.981614053249359 -0.464891016483307 2.17900013923645 255 125 107
0.987573027610779 -0.464919149875641 2.17900013923645 255 120 107
0.993079602718353 -0.464735269546509 2.1780002117157 255 119 107
1.00133657455444 -0.46583303809166 2.18300008773804 255 124 108
1.0091632604599 -0.466718941926956 2.18700003623962 254 124 110
1.0179443359375 -0.468033283948898 2.19300007820129 249 129 120
1.02536141872406 -0.46870893239975 2.19600009918213 192 103 93
1.66877603530884 -0.749776542186737 3.51200008392334 203 114 104
0.546829044818878 -0.467249661684036 2.16100001335144 253 154 133
0.553168058395386 -0.467658996582031 2.16300010681152 252 150 125
0.558742165565491 -0.467419862747192 2.16200017929077 255 153 128
0.56483268737793 -0.467613220214844 2.16300010681152 255 153 132
0.570928335189819 -0.467806816101074 2.16400003433228 255 154 133
0.577295780181885 -0.468216866254807 2.16600012779236 255 150 129
0.582058250904083 -0.467330068349838 2.16200017929077 255 148 127
0.587886512279511 -0.467308163642883 2.16200017929077 255 158 137
0.593989193439484 -0.467502653598785 2.16300010681152 255 152 130
0.600651741027832 -0.468129694461823 2.16600012779236 255 151 129
0.606210231781006 -0.467892497777939 2.16500020027161 255 156 134
0.61176323890686 -0.467655599117279 2.16400003433228 255 155 133
0.61731082201004 -0.467419058084488 2.16300010681152 255 153 128
0.623717069625854 -0.467831075191498 2.16500020027161 255 150 126
0.629843294620514 -0.468027323484421 2.16600012779236 255 155 133
0.635681331157684 -0.468007832765579 2.16600012779236 255 152 132
0.640927076339722 -0.467556595802307 2.16400003433228 255 142 122
0.646759867668152 -0.467537850141525 2.16400003433228 255 147 129
0.653799176216125 -0.468383759260178 2.16800022125244 255 147 132
0.660555601119995 -0.469013869762421 2.1710000038147 255 149 131
0.665793657302856 -0.46856427192688 2.16900014877319 255 144 124
0.671640455722809 -0.468547165393829 2.16900014877319 255 146 126
0.677175223827362 -0.468314528465271 2.16800022125244 255 148 128
0.683649718761444 -0.468730270862579 2.17000007629395 255 145 125
0.689500033855438 -0.468714594841003 2.17000007629395 255 144 126
0.695030272006989 -0.46848338842392 2.16900014877319 255 145 127
0.700878500938416 -0.46846866607666 2.16900014877319 255 148 130
0.707053005695343 -0.468670427799225 2.17000007629395 255 152 132
0.71356189250946 -0.469088703393936 2.17200016975403 255 145 125
0.719088315963745 -0.46885958313942 2.1710000038147 255 146 126
0.724276125431061 -0.468415170907974 2.16900014877319 255 146 125
0.730800151824951 -0.468835055828094 2.1710000038147 255 145 125
0.737335681915283 -0.469255596399307 2.17300009727478 255 144 124
0.743882715702057 -0.46967676281929 2.17500019073486 255 138 119
0.750096380710602 -0.469882518053055 2.17600011825562 255 138 119
0.755968928337097 -0.469873011112213 2.17600011825562 255 142 125
0.762542545795441 -0.470296084880829 2.1780002117157 255 138 121
0.768069326877594 -0.470071941614151 2.17700004577637 255 134 117
0.77430272102356 -0.470280408859253 2.1780002117157 255 134 117
0.77910977602005 -0.469625920057297 2.17500019073486 255 140 123
0.784262418746948 -0.469188004732132 2.17300009727478 255 138 121
0.789405405521393 -0.468750864267349 2.1710000038147 255 137 120
0.795271277427673 -0.468746334314346 2.1710000038147 255 139 122
0.801138460636139 -0.468742579221725 2.1710000038147 254 133 116
0.807750403881073 -0.469171494245529 2.17300009727478 255 139 120
0.814748823642731 -0.469817042350769 2.17600011825562 255 138 121
0.821010589599609 -0.470031529664993 2.17700004577637 255 133 116
0.826139807701111 -0.469599276781082 2.17500019073486 255 134 118
0.832024753093719 -0.469599664211273 2.17500019073486 255 130 116
0.839066922664642 -0.470248579978943 2.1780002117157 255 134 120
0.844963133335114 -0.470250725746155 2.1780002117157 255 137 121
0.850470364093781 -0.470037847757339 2.17700004577637 253 128 109
0.856367290019989 -0.470041751861572 2.17700004577637 253 128 109
0.862266302108765 -0.470046728849411 2.17700004577637 255 137 118
0.868166863918304 -0.470052570104599 2.17700004577637 255 135 116
0.873668193817139 -0.469843536615372 2.17600011825562 255 143 116
0.879974365234375 -0.470067262649536 2.17700004577637 255 255 145
0.88547420501709 -0.469860196113586 2.17600011825562 255 255 137
0.890971004962921 -0.469654202461243 2.17500019073486 255 255 133
0.894402801990509 -0.468369513750076 2.16900014877319 255 255 141
0.901124656200409 -0.468813329935074 2.1710000038147 255 255 141
0.907442271709442 -0.469042390584946 2.17200016975403 255 255 135
0.915449678897858 -0.470136344432831 2.17700004577637 255 255 128
0.92052435874939 -0.469719797372818 2.17500019073486 255 255 124
0.926442682743073 -0.469736307859421 2.17500019073486 255 255 126
0.931934833526611 -0.469537883996964 2.17400002479553 255 255 127
0.938287436962128 -0.469772726297379 2.17500019073486 255 255 128
0.944648265838623 -0.470008730888367 2.17600011825562 255 255 139
0.950580775737762 -0.470030039548874 2.17600011825562 255 255 142
0.956076502799988 -0.469836473464966 2.17500019073486 255 255 149
0.962012469768524 -0.469860285520554 2.17500019073486 236 229 126
0.978488504886627 -0.469291150569916 2.17200016975403 231 124 78
0.983976304531097 -0.469103962182999 2.1710000038147 238 121 86
0.989918410778046 -0.469134330749512 2.1710000038147 254 132 101
0.997240245342255 -0.469814360141754 2.17400002479553 252 130 99
1.00412094593048 -0.470279783010483 2.17600011825562 252 130 97
1.01148068904877 -0.470962792634964 2.17900013923645 249 124 105
1.01605927944183 -0.470350474119186 2.17600011825562 255 131 112
1.01827704906464 -0.468658626079559 2.16800022125244 217 110 98
0.551099181175232 -0.47174796462059 2.15500020980835 254 161 149
0.556393504142761 -0.471287369728088 2.15300011634827 255 158 139
0.562460005283356 -0.471483677625656 2.15400004386902 255 158 137
0.568795442581177 -0.471899062395096 2.1560001373291 255 154 133
0.575141310691834 -0.472314536571503 2.15799999237061 255 149 128
0.580420970916748 -0.471854895353317 2.1560001373291 255 157 136
0.586777091026306 -0.472270846366882 2.15799999237061 255 152 130
0.592869341373444 -0.472468256950378 2.15900015830994 255 155 133
0.599243998527527 -0.472884684801102 2.16100001335144 255 155 130
0.60478937625885 -0.472644954919815 2.16000008583069 255 151 127
0.610046565532684 -0.472186744213104 2.15799999237061 255 150 126
0.615578234195709 -0.47194766998291 2.15700006484985 255 149 125
0.621680498123169 -0.472146481275558 2.15799999237061 254 146 122
0.627788245677948 -0.472345679998398 2.15900015830994 255 151 129
0.633020877838135 -0.471888929605484 2.15700006484985 255 147 127
0.638538956642151 -0.471651256084442 2.1560001373291 255 142 124
0.644649386405945 -0.471851497888565 2.15700006484985 254 141 123
0.651971697807312 -0.472927182912827 2.16200017929077 254 141 123
0.658408105373383 -0.473346889019012 2.16400003433228 255 147 127
0.664548695087433 -0.473548382520676 2.16500020027161 255 152 132
0.670075416564941 -0.473312765359879 2.16400003433228 255 146 126
0.675284802913666 -0.472858965396881 2.16200017929077 255 147 127
0.680798530578613 -0.472624272108078 2.16100001335144 255 144 126
0.685989558696747 -0.472171485424042 2.15900015830994 255 143 125
0.691811084747314 -0.472156584262848 2.15900015830994 255 142 124
0.697955965995789 -0.472360849380493 2.16000008583069 255 145 125
0.704758405685425 -0.473003059625626 2.16300010681152 251 138 118
0.711249053478241 -0.473427057266235 2.16500020027161 254 141 121
0.716757118701935 -0.473195523023605 2.16400003433228 255 148 128
0.722260534763336 -0.472964704036713 2.16300010681152 255 149 129
0.72876900434494 -0.473390400409698 2.16500020027161 255 141 121
0.734949588775635 -0.473598003387451 2.16600012779236 255 147 127
0.741820275783539 -0.474243551492691 2.16900014877319 255 140 121
0.74732905626297 -0.474015086889267 2.16800022125244 255 136 117
0.7535280585289 -0.474224597215652 2.16900014877319 255 138 119
0.759033143520355 -0.473997503519058 2.16800022125244 255 141 124
0.764886438846588 -0.473989754915237 2.16800022125244 255 136 119
0.771807193756104 -0.474638551473618 2.1710000038147 255 137 118
0.777312397956848 -0.47441354393959 2.17000007629395 255 134 117
0.782813310623169 -0.474189341068268 2.16900014877319 255 139 120
0.787582576274872 -0.47352859377861 2.16600012779236 255 137 118
0.792703151702881 -0.473087251186371 2.16400003433228 255 139 120
0.798183262348175 -0.472865343093872 2.16300010681152 255 143 124
0.805145978927612 -0.473518699407578 2.16600012779236 255 131 112
0.811751961708069 -0.473954260349274 2.16800022125244 255 131 112
0.819124281406403 -0.474827796220779 2.17200016975403 255 135 116
0.823860943317413 -0.474171936511993 2.16900014877319 255 134 115
0.829730451107025 -0.474172800779343 2.16900014877319 255 134 118
0.83675742149353 -0.474830448627472 2.17200016975403 253 127 111
0.842638254165649 -0.474833071231842 2.17200016975403 255 134 118
0.848520815372467 -0.474836587905884 2.17200016975403 255 134 118
0.853618502616882 -0.474403887987137 2.17000007629395 255 134 115
0.858707189559937 -0.473972111940384 2.16800022125244 255 133 114
0.864983260631561 -0.474197179079056 2.16900014877319 255 136 113
0.878366112709045 -0.475087553262711 2.17300009727478 255 255 148
0.88467001914978 -0.475315660238266 2.17400002479553 255 255 131
0.889752686023712 -0.474888920783997 2.17200016975403 255 255 132
0.894414484500885 -0.474244594573975 2.16900014877319 255 255 132
0.899892449378967 -0.474038630723953 2.16800022125244 255 255 129
0.905785024166107 -0.474052369594574 2.16800022125244 255 255 130
0.912941753864288 -0.474723219871521 2.1710000038147 255 255 128
0.918424308300018 -0.474520564079285 2.17000007629395 255 255 125
0.924756169319153 -0.474756449460983 2.1710000038147 255 255 121
0.929810106754303 -0.474337458610535 2.16900014877319 255 255 122
0.936150252819061 -0.474575698375702 2.17000007629395 255 255 123
0.941630363464355 -0.474377781152725 2.16900014877319 255 255 122
0.947108149528503 -0.474181145429611 2.16800022125244 255 255 128
0.953023076057434 -0.474204391241074 2.16800022125244 255 255 141
0.959825694561005 -0.474666327238083 2.17000007629395 255 255 136
0.96797776222229 -0.475786030292511 2.17500019073486 255 255 135
0.973025858402252 -0.475375711917877 2.17300009727478 255 255 140
0.978066623210907 -0.474966675043106 2.1710000038147 255 255 155
1.00687456130981 -0.474692583084106 2.16900014877319 255 158 116
1.01142704486847 -0.474072903394699 2.16600012779236 250 132 101
1.01502776145935 -0.473016887903214 2.16100001335144 241 126 106
1.02002263069153 -0.472618967294693 2.15900015830994 233 124 110
0.554303526878357 -0.475327551364899 2.14500021934509 251 151 135
0.560087561607361 -0.475305169820786 2.14500021934509 255 154 133
0.565871238708496 -0.475282937288284 2.14500021934509 255 154 132
0.572987258434296 -0.476368755102158 2.15000009536743 255 149 127
0.578783988952637 -0.476346999406815 2.15000009536743 255 152 130
0.584852337837219 -0.476547002792358 2.15100002288818 255 153 129
0.590102195739746 -0.47608271241188 2.14900016784668 255 154 129
0.59645015001297 -0.476504802703857 2.15100002288818 255 152 128
0.602528810501099 -0.476705640554428 2.15200018882751 255 155 131
0.608612716197968 -0.4769067466259 2.15300011634827 255 148 124
0.613845884799957 -0.476443648338318 2.15100002288818 253 145 121
0.619644284248352 -0.476423889398575 2.15100002288818 255 149 125
0.625151991844177 -0.476183116436005 2.15000009536743 255 148 127
0.631241083145142 -0.476385533809662 2.15100002288818 255 147 126
0.637335777282715 -0.476588368415833 2.15200018882751 255 151 131
0.644332408905029 -0.477456003427505 2.1560001373291 255 147 127
0.650144517421722 -0.477438062429428 2.1560001373291 255 144 124
0.655652582645416 -0.477199196815491 2.15500020980835 254 141 121
0.661769211292267 -0.477403610944748 2.1560001373291 255 146 126
0.667272210121155 -0.477165579795837 2.15500020980835 255 144 124
0.673394739627838 -0.477370887994766 2.1560001373291 255 143 123
0.678262710571289 -0.476691067218781 2.15300011634827 255 145 127
0.684068202972412 -0.476675927639008 2.15300011634827 255 149 132
0.689553499221802 -0.476439893245697 2.15200018882751 253 137 120
0.696003198623657 -0.476868569850922 2.15400004386902 254 139 119
0.70246422290802 -0.477297812700272 2.1560001373291 255 139 119
0.709264934062958 -0.477948933839798 2.15900015830994 255 147 127
0.714757442474365 -0.477715045213699 2.15799999237061 255 144 124
0.720913112163544 -0.477924585342407 2.15900015830994 255 143 123
0.726738095283508 -0.477913290262222 2.15900015830994 255 139 119
0.732903182506561 -0.478123933076859 2.16000008583069 254 137 117
0.739758253097534 -0.478777915239334 2.16300010681152 255 134 115
0.744906783103943 -0.478325814008713 2.16100001335144 255 135 116
0.751087665557861 -0.478538483381271 2.16200017929077 255 141 122
0.755874216556549 -0.477866381406784 2.15900015830994 255 141 122
0.762056767940521 -0.478080362081528 2.16000008583069 255 141 122
0.768601179122925 -0.47851637005806 2.16200017929077 251 130 111
0.774799227714539 -0.478731721639633 2.16300010681152 255 133 114
0.780282020568848 -0.478505283594131 2.16200017929077 255 132 113
0.785396635532379 -0.478058159351349 2.16000008583069 255 138 119
0.790501773357391 -0.477611869573593 2.15799999237061 255 135 116
0.795597434043884 -0.477166384458542 2.1560001373291 255 134 115
0.801798641681671 -0.477385640144348 2.15700006484985 253 128 109
0.80912983417511 -0.478269726037979 2.16100001335144 254 129 110
0.816484212875366 -0.479154646396637 2.16500020027161 255 133 114
0.821582615375519 -0.478712469339371 2.16300010681152 255 139 120
0.827436745166779 -0.478713870048523 2.16300010681152 255 135 116
0.833677709102631 -0.478937417268753 2.16400003433228 255 129 113
0.839925944805145 -0.479162007570267 2.16500020027161 254 126 110
0.845399856567383 -0.478944778442383 2.16400003433228 255 127 111
0.850870132446289 -0.478728502988815 2.16300010681152 255 130 111
0.855544686317444 -0.478070557117462 2.16000008583069 252 127 108
0.862597703933716 -0.478741586208344 2.16300010681152 255 149 124
0.86886590719223 -0.478970944881439 2.16400003433228 255 255 157
0.875545978546143 -0.479422688484192 2.16600012779236 255 255 139
0.881831884384155 -0.479654133319855 2.16700005531311 255 255 135
0.887306213378906 -0.479443967342377 2.16600012779236 255 255 131
0.89318984746933 -0.479456186294556 2.16600012779236 255 255 129
0.898245513439178 -0.479026764631271 2.16400003433228 255 255 126
0.903710603713989 -0.478819847106934 2.16300010681152 255 255 126
0.910434424877167 -0.479278177022934 2.16500020027161 255 255 126
0.915478706359863 -0.478852182626724 2.16300010681152 255 255 127
0.921366631984711 -0.478870064020157 2.16300010681152 255 255 126
0.926399886608124 -0.478446334600449 2.16100001335144 255 255 122
0.93228805065155 -0.478466629981995 2.16100001335144 255 255 122
0.939047396183014 -0.47893100976944 2.16300010681152 255 255 122
0.944509983062744 -0.478732407093048 2.16200017929077 255 255 121
0.949970185756683 -0.478534996509552 2.16100001335144 255 255 124
0.956312716007233 -0.478781759738922 2.16200017929077 255 255 125
0.964444220066071 -0.479915738105774 2.16700005531311 255 255 128
0.969919621944427 -0.479722321033478 2.16600012779236 255 255 126
0.975843787193298 -0.479751795530319 2.16600012779236 255 255 118
0.979504883289337 -0.478674978017807 2.16100001335144 255 255 123
0.986790359020233 -0.479371666908264 2.16400003433228 255 255 116
0.992719709873199 -0.479405224323273 2.16400003433228 255 255 117
0.997730016708374 -0.47899717092514 2.16200017929077 255 255 144
1.0008761882782 -0.477704167366028 2.1560001373291 255 255 138
1.01130962371826 -0.477116525173187 2.15300011634827 252 163 108
1.01864635944366 -0.477822184562683 2.1560001373291 253 135 106
1.02552855014801 -0.478307843208313 2.15799999237061 229 121 103
1.66561698913574 -0.763782203197479 3.44500017166138 255 133 110
0.557715356349945 -0.479077577590942 2.13600015640259 253 158 131
0.564002633094788 -0.479504108428955 2.13800001144409 255 152 131
0.570833444595337 -0.480379462242126 2.14200019836426 255 151 131
0.576878070831299 -0.480582147836685 2.14300012588501 255 153 131
0.582927823066711 -0.480785042047501 2.14400005340576 255 149 125
0.588159084320068 -0.480315566062927 2.14200019836426 255 153 129
0.594211220741272 -0.480519026517868 2.14300012588501 255 152 128
0.599988579750061 -0.48049858212471 2.14300012588501 255 152 128
0.6063312292099 -0.480926841497421 2.14500021934509 255 151 127
0.611828565597534 -0.480682790279388 2.14400005340576 255 151 127
0.617896497249603 -0.480887532234192 2.14500021934509 255 147 123
0.623097538948059 -0.480419963598251 2.14300012588501 255 149 125
0.629755139350891 -0.48107373714447 2.14600014686584 255 146 125
0.636132776737213 -0.481503665447235 2.14800000190735 255 142 122
0.643119037151337 -0.482382327318192 2.15200018882751 254 141 121
0.648016154766083 -0.481692224740982 2.14900016784668 255 148 127
0.653201460838318 -0.481226742267609 2.1470000743866 255 143 122
0.659296989440918 -0.481434136629105 2.14800000190735 255 148 127
0.66570782661438 -0.481866151094437 2.15000009536743 255 146 126
0.670880258083344 -0.481402039527893 2.14800000190735 253 140 119
0.676042377948761 -0.48093855381012 2.14600014686584 255 146 126
0.681511640548706 -0.480699628591537 2.14500021934509 255 148 128
0.68761682510376 -0.480909436941147 2.14600014686584 255 144 124
0.693727791309357 -0.481119722127914 2.1470000743866 255 140 120
0.700170338153839 -0.481554687023163 2.14900016784668 255 140 120
0.706952810287476 -0.482214272022247 2.15200018882751 253 136 116
0.713089466094971 -0.482426196336746 2.15300011634827 255 143 123
0.719232201576233 -0.482638716697693 2.15400004386902 254 137 117
0.724707663059235 -0.482403695583344 2.15300011634827 255 136 117
0.730178654193878 -0.482169389724731 2.15200018882751 255 138 119
0.737012803554535 -0.482831865549088 2.15500020980835 255 139 120
0.742140293121338 -0.482374727725983 2.15300011634827 254 133 114
0.748995006084442 -0.483038574457169 2.1560001373291 255 139 120
0.753766119480133 -0.482358783483505 2.15300011634827 255 138 119
0.759580314159393 -0.482351839542389 2.15300011634827 255 139 120
0.765395522117615 -0.48234561085701 2.15300011634827 255 140 121
0.772286474704742 -0.4830122590065 2.1560001373291 255 137 118
0.778472781181335 -0.483231514692307 2.15700006484985 255 135 108
0.784302055835724 -0.483227521181107 2.15700006484985 255 134 113
0.789399981498718 -0.482776343822479 2.15500020980835 255 135 116
0.794119238853455 -0.482101857662201 2.15200018882751 255 138 119
0.7999387383461 -0.482100337743759 2.15200018882751 255 137 117
0.806882798671722 -0.482771664857864 2.15500020980835 255 140 117
0.814221799373627 -0.483667939901352 2.15900015830994 255 136 113
0.818924903869629 -0.482996821403503 2.1560001373291 255 136 113
0.823996007442474 -0.48255068063736 2.15400004386902 255 134 115
0.829443097114563 -0.482329457998276 2.15300011634827 255 134 115
0.836050271987915 -0.482781261205673 2.15500020980835 255 130 111
0.841498017311096 -0.482561886310577 2.15400004386902 255 126 108
0.847335517406464 -0.482567548751831 2.15400004386902 255 129 110
0.852778911590576 -0.482350140810013 2.15300011634827 255 128 108
0.860212743282318 -0.483253926038742 2.15700006484985 250 132 103
0.866465628147125 -0.4834865629673 2.15799999237061 255 255 144
0.871917724609375 -0.483272194862366 2.15700006484985 255 255 129
0.878180325031281 -0.483506977558136 2.15799999237061 255 255 133
0.884450674057007 -0.483742892742157 2.15900015830994 255 255 128
0.891965806484222 -0.484652012586594 2.16300010681152 255 255 128
0.897014439105988 -0.484217882156372 2.16100001335144 255 255 124
0.902890384197235 -0.484233051538467 2.16100001335144 255 255 122
0.907927811145782 -0.48380121588707 2.15900015830994 255 255 122
0.912956833839417 -0.483370453119278 2.15700006484985 255 255 123
0.917977690696716 -0.482940942049026 2.15500020980835 255 255 134
0.923419177532196 -0.482736647129059 2.15400004386902 255 255 125
0.929720818996429 -0.48298180103302 2.15500020980835 255 255 122
0.935162603855133 -0.482779949903488 2.15400004386902 255 255 122
0.940164983272552 -0.482355237007141 2.15200018882751 255 255 122
0.946478426456451 -0.482604175806046 2.15300011634827 255 255 121
0.952800393104553 -0.48285448551178 2.15400004386902 255 255 121
0.960021376609802 -0.483554512262344 2.15700006484985 255 255 124
0.965470910072327 -0.483359187841415 2.1560001373291 254 255 120
0.971819400787354 -0.483613580465317 2.15700006484985 255 255 117
0.97681713104248 -0.483196794986725 2.15500020980835 255 255 120
0.985455691814423 -0.484575212001801 2.16100001335144 255 255 112
0.991378247737885 -0.484609723091125 2.16100001335144 255 255 112
0.99638170003891 -0.484197229146957 2.15900015830994 255 255 125
0.998592674732208 -0.482440382242203 2.15100002288818 255 255 124
1.00309860706329 -0.48180627822876 2.14800000190735 255 255 155
1.00853180885315 -0.481622248888016 2.1470000743866 223 135 76
1.01679861545563 -0.482785761356354 2.15200018882751 251 129 96
1.0227210521698 -0.482829242944717 2.15200018882751 255 130 111
1.03151571750641 -0.484220564365387 2.15799999237061 255 145 131
0.562398076057434 -0.483914226293564 2.132000207901 255 152 134
0.569212973117828 -0.484800517559052 2.13600015640259 255 147 127
0.574703216552734 -0.484552174806595 2.13499999046326 255 147 125
0.580187916755676 -0.484304130077362 2.1340000629425 255 149 125
0.585117936134338 -0.483602523803711 2.13100004196167 255 154 130
0.591417968273163 -0.484035909175873 2.13300013542175 255 154 130
0.597168743610382 -0.484015703201294 2.13300013542175 255 145 121
0.603484630584717 -0.484449625015259 2.13499999046326 255 152 128
0.609526097774506 -0.48465695977211 2.13600015640259 251 139 115
0.616149008274078 -0.485318452119827 2.13900017738342 255 149 125
0.622206509113312 -0.485526412725449 2.14000010490417 255 146 121
0.629149734973907 -0.486415356397629 2.14400005340576 255 144 120
0.634930074214935 -0.486397176980972 2.14400005340576 255 146 122
0.64130824804306 -0.48683312535286 2.14600014686584 255 145 121
0.645586609840393 -0.485681563615799 2.14100003242493 255 145 124
0.651055037975311 -0.48543781042099 2.14000010490417 255 145 125
0.656825184822083 -0.485421389341354 2.14000010490417 255 141 121
0.663524448871613 -0.48608586192131 2.14300012588501 255 147 127
0.669303238391876 -0.486070364713669 2.14300012588501 255 142 122
0.674452245235443 -0.485601723194122 2.14100003242493 255 142 122
0.680544137954712 -0.485814094543457 2.14200019836426 255 152 132
0.686641693115234 -0.486026853322983 2.14300012588501 255 142 122
0.692745089530945 -0.486240178346634 2.14400005340576 255 141 121
0.698202729225159 -0.486000537872314 2.14300012588501 255 140 120
0.704641044139862 -0.486441761255264 2.14500021934509 254 137 117
0.710759401321411 -0.486656785011292 2.14600014686584 255 143 122
0.717551648616791 -0.487325936555862 2.14900016784668 255 145 126
0.722004473209381 -0.486408293247223 2.14500021934509 255 145 126
0.727454364299774 -0.486171633005142 2.14400005340576 255 136 117
0.733241558074951 -0.48616236448288 2.14400005340576 255 134 115
0.739718973636627 -0.486607253551483 2.14600014686584 255 137 118
0.74655544757843 -0.487279653549194 2.14900016784668 255 137 118
0.752008497714996 -0.487045586109161 2.14800000190735 255 136 117
0.757809937000275 -0.487039089202881 2.14800000190735 255 133 114
0.763256967067719 -0.486806601285934 2.1470000743866 255 139 118
0.76941591501236 -0.487028270959854 2.14800000190735 255 142 123
0.775581479072571 -0.487250804901123 2.14900016784668 255 137 118
0.781753480434418 -0.487473994493485 2.15000009536743 255 138 125
0.787565767765045 -0.487471252679825 2.15000009536743 255 136 117
0.793010473251343 -0.487242728471756 2.14900016784668 255 136 117
0.798822581768036 -0.487241625785828 2.14900016784668 255 136 113
0.805385053157806 -0.4876948595047 2.15100002288818 255 134 110
0.811959803104401 -0.488148987293243 2.15300011634827 255 138 114
0.81664764881134 -0.487470358610153 2.15000009536743 255 134 110
0.821703374385834 -0.48701936006546 2.14800000190735 255 133 113
0.826364636421204 -0.486342519521713 2.14500021934509 255 135 116
0.834114968776703 -0.487480491399765 2.15000009536743 255 131 112
0.839550137519836 -0.487259030342102 2.14900016784668 255 127 109
0.844981610774994 -0.487038463354111 2.14800000190735 253 126 107
0.850409805774689 -0.486818999052048 2.1470000743866 254 128 105
0.857828319072723 -0.487734198570251 2.15100002288818 255 142 111
0.864066123962402 -0.487970292568207 2.15200018882751 255 255 148
0.868694484233856 -0.487300306558609 2.14900016784668 255 255 124
0.874122440814972 -0.487084865570068 2.14800000190735 255 255 122
0.880366742610931 -0.487324088811874 2.14900016784668 255 255 123
0.887031137943268 -0.487791210412979 2.15100002288818 255 255 125
0.892878413200378 -0.487805873155594 2.15100002288818 255 255 123
0.898728251457214 -0.487821727991104 2.15100002288818 255 255 119
0.90458071231842 -0.487838745117188 2.15100002288818 255 255 112
0.910012423992157 -0.487630099058151 2.15000009536743 255 255 118
0.915441393852234 -0.487422674894333 2.14900016784668 255 255 118
0.921296417713165 -0.487443268299103 2.14900016784668 255 255 122
0.926291465759277 -0.487011432647705 2.1470000743866 255 255 123
0.932146787643433 -0.487034529447556 2.1470000743866 255 255 121
0.938005149364471 -0.487058877944946 2.1470000743866 255 255 115
0.94474583864212 -0.487538248300552 2.14900016784668 255 255 120
0.949731230735779 -0.487111479043961 2.1470000743866 255 255 119
0.956044256687164 -0.487366706132889 2.14800000190735 255 255 121
0.961470484733582 -0.487169504165649 2.1470000743866 255 255 119
0.968697011470795 -0.48788133263588 2.15000009536743 255 255 124
0.974130153656006 -0.487686902284622 2.14900016784668 255 255 119
0.982753813266754 -0.489082545042038 2.15500020980835 255 255 121
0.988661408424377 -0.489118039608002 2.15500020980835 255 255 119
0.993649840354919 -0.488701015710831 2.15300011634827 255 255 120
0.997238457202911 -0.487604409456253 2.14800000190735 255 255 117
1.00267159938812 -0.487417221069336 2.1470000743866 255 255 159
1.00857329368591 -0.48745858669281 2.1470000743866 241 146 99
1.01542437076569 -0.487955749034882 2.14900016784668 254 119 101
1.02086472511292 -0.487773150205612 2.14800000190735 255 121 103
1.02726030349731 -0.488046497106552 2.14900016784668 255 120 107
1.03318500518799 -0.48809427022934 2.14900016784668 255 146 137
1.04346609115601 -0.490188032388687 2.15799999237061 192 98 89
0.561585128307343 -0.488980621099472 2.12900018692017 255 151 133
0.567326188087463 -0.488959223031998 2.12900018692017 255 154 133
0.572797834873199 -0.488708406686783 2.12800002098084 255 148 128
0.578263998031616 -0.488457918167114 2.12700009346008 255 149 125
0.583724558353424 -0.48820772767067 2.12600016593933 255 147 123
0.589456856250763 -0.488187462091446 2.12600016593933 255 152 128
0.594629049301147 -0.487708210945129 2.12400007247925 255 146 125
0.600638508796692 -0.487918227910995 2.125 255 146 122
0.606653332710266 -0.488128542900085 2.12600016593933 255 144 123
0.613825559616089 -0.489257544279099 2.13100004196167 255 143 119
0.620152711868286 -0.489698141813278 2.13300013542175 255 142 118
0.627370893955231 -0.490827739238739 2.13800001144409 255 143 119
0.633135378360748 -0.490809798240662 2.13800001144409 255 141 117
0.639198958873749 -0.491021931171417 2.13900017738342 255 146 122
0.644363462924957 -0.490545749664307 2.13700008392334 255 141 121
0.649213135242462 -0.489840507507324 2.1340000629425 255 144 124
0.655274510383606 -0.490053951740265 2.13499999046326 255 142 122
0.661341547966003 -0.490267783403397 2.13600015640259 255 138 118
0.667414247989655 -0.490482121706009 2.13700008392334 255 147 127
0.672862708568573 -0.490237921476364 2.13600015640259 255 141 121
0.678941428661346 -0.490453243255615 2.13700008392334 255 149 129
0.68534654378891 -0.490898609161377 2.13900017738342 255 143 123
0.691439628601074 -0.491115003824234 2.14000010490417 255 142 122
0.696887075901031 -0.490872979164124 2.13900017738342 255 142 122
0.702986598014832 -0.491090446710587 2.14000010490417 254 137 116
0.709092080593109 -0.491308510303497 2.14100003242493 255 143 122
0.714869797229767 -0.491297751665115 2.14100003242493 255 143 119
0.719638288021088 -0.49059921503067 2.13800001144409 255 146 125
0.724391341209412 -0.489901304244995 2.13499999046326 255 138 117
0.730496942996979 -0.490121930837631 2.13600015640259 252 131 112
0.736953318119049 -0.4905726313591 2.13800001144409 255 134 115
0.743768811225891 -0.491253525018692 2.14100003242493 255 140 121
0.749901294708252 -0.491476207971573 2.14200019836426 255 135 116
0.755334436893463 -0.491240680217743 2.14100003242493 255 134 115
0.761118710041046 -0.491235315799713 2.14100003242493 255 132 113
0.766904056072235 -0.491230756044388 2.14100003242493 255 131 115
0.77341240644455 -0.49168586730957 2.14300012588501 255 131 115
0.779568910598755 -0.49191227555275 2.14400005340576 255 134 118
0.785732209682465 -0.492139548063278 2.14500021934509 255 136 117
0.791533231735229 -0.492138206958771 2.14500021934509 255 131 112
0.797335386276245 -0.492137610912323 2.14500021934509 251 126 106
0.803887844085693 -0.492596805095673 2.1470000743866 255 133 110
0.809321343898773 -0.492368638515472 2.14600014686584 255 133 110
0.814370930194855 -0.491911798715591 2.14400005340576 255 132 109
0.818646252155304 -0.490997105836868 2.14000010490417 255 128 108
0.823671877384186 -0.490542083978653 2.13800001144409 255 135 115
0.830240368843079 -0.49100586771965 2.14000010490417 255 127 109
0.836430728435516 -0.491241127252579 2.14100003242493 255 130 112
0.842235028743744 -0.491247981786728 2.14100003242493 255 134 114
0.848041236400604 -0.491255849599838 2.14100003242493 255 135 112
0.85424816608429 -0.491494178771973 2.14200019836426 255 147 109
0.859659492969513 -0.49127459526062 2.14100003242493 255 255 138
0.865471601486206 -0.491285502910614 2.14100003242493 255 255 124
0.87128609418869 -0.491297602653503 2.14100003242493 255 255 123
0.878331780433655 -0.49199914932251 2.14400005340576 255 255 123
0.883746564388275 -0.491783946752548 2.14300012588501 255 255 129
0.888743102550507 -0.49134036898613 2.14100003242493 255 255 121
0.894984722137451 -0.49158638715744 2.14200019836426 255 255 120
0.901234328746796 -0.491833597421646 2.14300012588501 255 255 117
0.90791529417038 -0.492311537265778 2.14500021934509 255 255 118
0.913757920265198 -0.492331743240356 2.14500021934509 255 255 118
0.919174432754517 -0.492123514413834 2.14400005340576 255 255 121
0.923725605010986 -0.491457551717758 2.14100003242493 255 255 102
0.928697645664215 -0.491022348403931 2.13900017738342 255 255 111
0.935409128665924 -0.491506576538086 2.14100003242493 255 255 112
0.943453788757324 -0.49268102645874 2.14600014686584 255 255 116
0.949759304523468 -0.492938458919525 2.1470000743866 255 255 118
0.954738438129425 -0.49250853061676 2.14500021934509 255 255 121
0.958814322948456 -0.491620659828186 2.14100003242493 255 255 111
0.964674115180969 -0.49165266752243 2.14100003242493 255 255 115
0.971897304058075 -0.492374986410141 2.14400005340576 255 255 119
0.980052828788757 -0.493558257818222 2.14900016784668 255 255 121
0.985945522785187 -0.49359467625618 2.14900016784668 255 255 120
0.99045729637146 -0.492943495512009 2.14600014686584 255 255 119
0.996349513530731 -0.492982864379883 2.14600014686584 255 255 117
1.00131177902222 -0.49256432056427 2.14400005340576 255 255 156
1.0072066783905 -0.492606788873672 2.14400005340576 223 120 76
1.01168847084045 -0.491961479187012 2.14100003242493 255 119 104
1.01710832118988 -0.491777241230011 2.14000010490417 255 119 104
1.02396154403687 -0.492284148931503 2.14200019836426 255 114 103
1.03131115436554 -0.493022590875626 2.14500021934509 253 114 105
1.03723108768463 -0.493073225021362 2.14500021934509 255 130 121
0.565706193447113 -0.493312150239944 2.1230001449585 243 148 135
0.570892810821533 -0.492826521396637 2.12100005149841 255 147 123
0.576340317726135 -0.49257355928421 2.12000012397766 255 153 131
0.582056879997253 -0.492553204298019 2.12000012397766 255 149 128
0.587773323059082 -0.49253323674202 2.12000012397766 253 140 119
0.592929720878601 -0.492048859596252 2.11800003051758 255 146 125
0.598640620708466 -0.4920294880867 2.11800003051758 255 148 124
0.604636967182159 -0.492242872714996 2.11900019645691 255 149 125
0.612078666687012 -0.493617862462997 2.125 255 149 125
0.618971467018127 -0.494528740644455 2.12900018692017 255 145 121
0.625298857688904 -0.494975239038467 2.13100004196167 255 142 118
0.630452752113342 -0.494493156671524 2.12900018692017 255 145 124
0.636791169643402 -0.494940459728241 2.13100004196167 255 147 126
0.642236173152924 -0.494691491127014 2.13000011444092 255 139 120
0.647980093955994 -0.49467521905899 2.13000011444092 255 135 116
0.65341728925705 -0.494427144527435 2.12900018692017 255 136 117
0.659468591213226 -0.494644045829773 2.13000011444092 255 135 116
0.665525615215302 -0.494861394166946 2.13100004196167 255 147 127
0.671273350715637 -0.494846999645233 2.13100004196167 255 138 118
0.676703751087189 -0.494601011276245 2.13000011444092 255 144 124
0.683090507984161 -0.49505215883255 2.132000207901 255 139 119
0.688519060611725 -0.494807153940201 2.13100004196167 255 145 125
0.694268584251404 -0.494794994592667 2.13100004196167 255 148 127
0.699690163135529 -0.494551241397858 2.13000011444092 255 143 119
0.706431686878204 -0.495236784219742 2.13300013542175 255 143 119
0.71285605430603 -0.495690733194351 2.13499999046326 255 139 115
0.718618810176849 -0.49568098783493 2.13499999046326 255 144 123
0.723364531993866 -0.494975447654724 2.132000207901 255 143 122
0.728436708450317 -0.494502663612366 2.13000011444092 255 137 118
0.734188258647919 -0.494494944810867 2.13000011444092 255 135 116
0.740287959575653 -0.494720011949539 2.13100004196167 255 134 115
0.7470942735672 -0.495410144329071 2.1340000629425 255 137 118
0.752506732940674 -0.495172470808029 2.13300013542175 255 138 119
0.758625626564026 -0.495399713516235 2.1340000629425 255 131 112
0.764392793178558 -0.495395630598068 2.1340000629425 255 130 114
0.770161032676697 -0.495392292737961 2.1340000629425 255 138 122
0.776657819747925 -0.495854139328003 2.13600015640259 255 132 116
0.782800257205963 -0.496084570884705 2.13700008392334 255 131 115
0.789687395095825 -0.496780127286911 2.14000010490417 255 133 114
0.795476913452148 -0.496780127286911 2.14000010490417 255 134 115
0.80164235830307 -0.497013121843338 2.14100003242493 255 134 115
0.807060480117798 -0.496782749891281 2.14000010490417 255 130 111
0.81285434961319 -0.496785402297974 2.14000010490417 255 131 111
0.81750226020813 -0.496092528104782 2.13700008392334 255 130 112
0.822520911693573 -0.49563279747963 2.13499999046326 255 129 111
0.828694224357605 -0.495870441198349 2.13600015640259 255 128 110
0.835656225681305 -0.496573388576508 2.13900017738342 252 123 103
0.841062545776367 -0.496348649263382 2.13800001144409 255 129 107
0.84606945514679 -0.495892822742462 2.13600015640259 253 132 104
0.856458067893982 -0.495216429233551 2.13300013542175 255 255 136
0.861845374107361 -0.49499586224556 2.132000207901 255 255 126
0.868450284004211 -0.49547290802002 2.1340000629425 255 255 114
0.87588769197464 -0.496415436267853 2.13800001144409 255 255 110
0.881699681282043 -0.496430397033691 2.13800001144409 255 255 128
0.886683881282806 -0.495982199907303 2.13600015640259 255 255 121
0.893330872058868 -0.496463865041733 2.13800001144409 255 255 120
0.90041196346283 -0.497179001569748 2.14100003242493 255 255 118
0.906242072582245 -0.497198700904846 2.14100003242493 255 255 117
0.912501096725464 -0.497451990842819 2.14200019836426 255 255 116
0.917910635471344 -0.497241854667664 2.14100003242493 255 255 122
0.922454953193665 -0.496568620204926 2.13800001144409 255 255 115
0.92741996049881 -0.49612882733345 2.13600015640259 255 255 112
0.9336878657341 -0.496387124061584 2.13700008392334 255 255 112
0.94084358215332 -0.49711138010025 2.14000010490417 255 255 113
0.948018908500671 -0.497837066650391 2.14300012588501 255 255 116
0.952543318271637 -0.497170299291611 2.14000010490417 255 255 117
0.956606805324554 -0.496272474527359 2.13600015640259 255 255 118
0.962003707885742 -0.496072947978973 2.13499999046326 255 255 119
0.968758702278137 -0.496572077274323 2.13700008392334 255 255 118
0.977352559566498 -0.498002231121063 2.14300012588501 255 255 118
0.983230292797089 -0.498039662837982 2.14300012588501 255 255 117
0.988188624382019 -0.497613668441772 2.14100003242493 255 255 114
0.994533121585846 -0.497886598110199 2.14200019836426 255 255 117
1.00537145137787 -0.497507214546204 2.14000010490417 238 129 93
1.00842595100403 -0.496157377958298 2.1340000629425 255 114 103
1.01430356502533 -0.496203988790512 2.1340000629425 253 113 100
1.02209782600403 -0.4971823990345 2.13800001144409 255 114 102
1.02895736694336 -0.497697681188583 2.14000010490417 255 122 110
1.03389799594879 -0.497284173965454 2.13800001144409 255 120 107
1.03591454029083 -0.495476752519608 2.13000011444092 232 133 124
1.68477058410645 -0.792569935321808 3.4060001373291 231 132 123
0.569257199764252 -0.497141629457474 2.11500000953674 253 145 129
0.574960649013519 -0.497121214866638 2.11500000953674 255 148 128
0.580938637256622 -0.497336238622665 2.11600017547607 255 140 119
0.586921870708466 -0.497551500797272 2.11700010299683 255 144 123
0.592070460319519 -0.497061938047409 2.11500000953674 255 142 118
0.596925735473633 -0.496337801218033 2.11199998855591 255 144 120
0.602906227111816 -0.496554136276245 2.11300015449524 255 146 122
0.609468042850494 -0.497240722179413 2.11600017547607 255 144 120
0.616046130657196 -0.497927635908127 2.11900019645691 255 146 122
0.621760189533234 -0.497909933328629 2.11900019645691 255 142 118
0.627474308013916 -0.497892707586288 2.11900019645691 255 147 126
0.634085118770599 -0.498580813407898 2.12200021743774 255 138 117
0.640410780906677 -0.499034285545349 2.12400007247925 255 138 119
0.645834743976593 -0.498783349990845 2.1230001449585 255 136 117
0.651560366153717 -0.498767852783203 2.1230001449585 255 138 119
0.657286465167999 -0.498752862215042 2.1230001449585 255 141 122
0.663325011730194 -0.498973280191422 2.12400007247925 255 140 123
0.669054448604584 -0.498959302902222 2.12400007247925 255 141 124
0.674784183502197 -0.498945772647858 2.12400007247925 255 137 120
0.680514454841614 -0.498932868242264 2.12400007247925 255 140 121
0.685922086238861 -0.49868568778038 2.1230001449585 254 134 115
0.691650569438934 -0.498673886060715 2.1230001449585 255 141 120
0.697708129882813 -0.498897612094879 2.12400007247925 255 142 121
0.704102873802185 -0.499356746673584 2.12600016593933 255 145 122
0.710175156593323 -0.499581694602966 2.12700009346008 255 136 113
0.715916991233826 -0.499572396278381 2.12700009346008 255 141 120
0.721320331096649 -0.499328851699829 2.12600016593933 255 134 113
0.726718842983246 -0.499085962772369 2.125 255 134 113
0.73245757818222 -0.499078631401062 2.125 255 134 115
0.737849771976471 -0.498837232589722 2.12400007247925 255 139 120
0.743937730789185 -0.499066203832626 2.125 255 134 115
0.749326467514038 -0.498826235532761 2.12400007247925 255 133 114
0.755421817302704 -0.499056696891785 2.125 255 136 117
0.761523842811584 -0.499288082122803 2.12600016593933 255 132 113
0.768353998661041 -0.499989777803421 2.12900018692017 255 135 116
0.774474382400513 -0.500222682952881 2.13000011444092 255 131 115
0.779136121273041 -0.499516934156418 2.12700009346008 255 136 120
0.785628080368042 -0.499986290931702 2.12900018692017 255 133 114
0.791017055511475 -0.49975198507309 2.12800002098084 255 130 111
0.798274159431458 -0.500692844390869 2.132000207901 255 130 111
0.804045855998993 -0.500695168972015 2.132000207901 252 125 106
0.8105788230896 -0.501168072223663 2.1340000629425 255 127 109
0.815211415290833 -0.500467717647552 2.13100004196167 255 130 112
0.820214629173279 -0.500003099441528 2.12900018692017 255 124 106
0.825984716415405 -0.50000923871994 2.12900018692017 255 127 107
0.833709955215454 -0.501190602779388 2.1340000629425 255 129 109
0.838710486888886 -0.500729024410248 2.132000207901 255 128 108
0.8444944024086 -0.500738203525543 2.132000207901 255 138 107
0.854060292243958 -0.499585181474686 2.12700009346008 255 255 123
0.860240817070007 -0.499832361936569 2.12800002098084 255 255 119
0.866429150104523 -0.500080704689026 2.12900018692017 255 255 123
0.873854100704193 -0.501034796237946 2.13300013542175 255 255 121
0.879241287708282 -0.500815629959106 2.132000207901 255 255 127
0.884625256061554 -0.500597536563873 2.13100004196167 255 255 122
0.891677796840668 -0.501320362091064 2.1340000629425 255 255 120
0.89790803194046 -0.501574516296387 2.13499999046326 255 255 117
0.904146432876587 -0.501830041408539 2.13600015640259 255 255 116
0.909540891647339 -0.501616835594177 2.13499999046326 255 255 112
0.914075374603271 -0.500935018062592 2.132000207901 255 255 114
0.919027805328369 -0.500489354133606 2.13000011444092 255 255 122
0.923972189426422 -0.500044882297516 2.12800002098084 255 255 121
0.931093394756317 -0.500776767730713 2.13100004196167 255 255 118
0.93779456615448 -0.501275062561035 2.13300013542175 255 255 115
0.944952249526978 -0.502009749412537 2.13600015640259 255 255 115
0.950794160366058 -0.502040803432465 2.13600015640259 255 255 118
0.955743789672852 -0.501603186130524 2.1340000629425 255 255 119
0.960686087608337 -0.501166939735413 2.132000207901 255 255 119
0.967434346675873 -0.501672446727753 2.1340000629425 255 255 119
0.975109338760376 -0.50264972448349 2.13800001144409 255 255 115
0.981433749198914 -0.502923309803009 2.13900017738342 255 255 112
0.985459387302399 -0.502022624015808 2.13499999046326 255 255 108
0.990395963191986 -0.501593828201294 2.13300013542175 255 255 112
1.00165784358978 -0.501446187496185 2.132000207901 239 127 93
1.00705444812775 -0.501257061958313 2.13100004196167 255 114 102
1.01292562484741 -0.501304864883423 2.13100004196167 255 113 98
1.01975727081299 -0.501824915409088 2.13300013542175 255 119 104
1.02660465240479 -0.502346694469452 2.13499999046326 255 114 99
1.03250050544739 -0.502399623394012 2.13499999046326 255 121 106
1.03548312187195 -0.501042366027832 2.12900018692017 255 123 110
1.0384373664856 -0.499686449766159 2.1230001449585 255 173 147
0.567352831363678 -0.501186370849609 2.10800004005432 231 146 136
0.573037683963776 -0.501166224479675 2.10800004005432 249 136 125
0.578997075557709 -0.501384198665619 2.10900020599365 254 137 116
0.585238814353943 -0.501840114593506 2.11100006103516 255 138 117
0.590931594371796 -0.501820921897888 2.11100006103516 255 146 122
0.596059143543243 -0.501326739788055 2.10900020599365 255 141 116
0.602031826972961 -0.501545906066895 2.1100001335144 255 139 116
0.608297824859619 -0.502003192901611 2.11199998855591 255 141 118
0.614865481853485 -0.502698481082916 2.11500000953674 255 142 119
0.619982361793518 -0.502205789089203 2.11300015449524 255 146 125
0.625384628772736 -0.501951158046722 2.11199998855591 255 144 123
0.631379365921021 -0.502172410488129 2.11300015449524 255 136 115
0.63737964630127 -0.502393960952759 2.11400008201599 255 135 116
0.643081247806549 -0.502378344535828 2.11400008201599 255 141 122
0.648783206939697 -0.502363204956055 2.11400008201599 255 137 118
0.655104696750641 -0.502823889255524 2.11600017547607 255 139 120
0.661437153816223 -0.503284931182861 2.11800003051758 254 133 116
0.666835904121399 -0.503033697605133 2.11700010299683 255 137 120
0.672864973545074 -0.503258228302002 2.11800003051758 255 138 121
0.677618503570557 -0.50253289937973 2.11500000953674 255 140 121
0.683002352714539 -0.502283334732056 2.11400008201599 255 135 116
0.688707232475281 -0.502272009849548 2.11400008201599 255 141 120
0.69506961107254 -0.502736449241638 2.11600017547607 255 137 116
0.701443314552307 -0.503201365470886 2.11800003051758 255 136 113
0.707494735717773 -0.503429532051086 2.11900019645691 255 134 113
0.713888704776764 -0.50389575958252 2.12100005149841 255 134 114
0.719276487827301 -0.503650009632111 2.12000012397766 255 131 111
0.72431755065918 -0.503167271614075 2.11800003051758 255 131 111
0.72934877872467 -0.502685308456421 2.11600017547607 255 136 117
0.735412240028381 -0.502916812896729 2.11700010299683 255 135 116
0.741481900215149 -0.503148913383484 2.11800003051758 255 135 116
0.747910916805267 -0.503619492053986 2.12000012397766 255 137 118
0.753640711307526 -0.503615617752075 2.12000012397766 255 136 117
0.759371697902679 -0.503612577915192 2.12000012397766 255 137 118
0.765825629234314 -0.504085421562195 2.12200021743774 255 136 116
0.771564245223999 -0.504083931446075 2.12200021743774 254 129 110
0.776571571826935 -0.503608167171478 2.12000012397766 255 135 116
0.782676339149475 -0.503845989704132 2.12100005149841 255 130 111
0.788044512271881 -0.503609538078308 2.12000012397766 255 131 112
0.794906497001648 -0.504324197769165 2.1230001449585 255 130 112
0.801409065723419 -0.504802167415619 2.125 255 132 114
0.807923913002014 -0.505281150341034 2.12700009346008 255 134 114
0.812921047210693 -0.504810750484467 2.125 254 123 103
0.817908942699432 -0.504341423511505 2.1230001449585 255 127 109
0.823663771152496 -0.504348158836365 2.1230001449585 255 128 108
0.831373810768127 -0.50554370880127 2.12800002098084 255 126 104
0.836359143257141 -0.505077362060547 2.12600016593933 255 124 104
0.841335475444794 -0.504611968994141 2.12400007247925 248 126 93
0.846701800823212 -0.50438529253006 2.1230001449585 255 255 148
0.852867782115936 -0.50463479757309 2.12400007247925 255 255 121
0.859041333198547 -0.504885375499725 2.125 255 255 117
0.865222573280334 -0.505137145519257 2.12600016593933 255 255 118
0.871001839637756 -0.505152404308319 2.12600016593933 255 255 122
0.876783490180969 -0.505168914794922 2.12600016593933 255 255 123
0.882152378559113 -0.504948914051056 2.125 255 255 122
0.889607667922974 -0.505918264389038 2.12900018692017 255 255 121
0.894984364509583 -0.505700647830963 2.12800002098084 255 255 117
0.900358319282532 -0.505484342575073 2.12700009346008 255 255 116
0.905729532241821 -0.505269229412079 2.12600016593933 255 255 118
0.911098122596741 -0.505055367946625 2.125 255 255 117
0.916895687580109 -0.50508040189743 2.125 255 255 121
0.922262072563171 -0.504869222640991 2.12400007247925 255 255 121
