-0.674440085887909 -0.53728187084198 2.11199998855591 255 255 84
-0.668746948242188 -0.537283778190613 2.11199998855591 255 255 81
-0.663054704666138 -0.537286400794983 2.11199998855591 255 255 97
-0.656740665435791 -0.536780834197998 2.1100001335144 255 255 101
-0.651055335998535 -0.536784827709198 2.1100001335144 254 158 87
-0.645982265472412 -0.537298142910004 2.11199998855591 255 115 88
-0.63998955488205 -0.537048816680908 2.11100006103516 255 103 92
-0.634904265403748 -0.537563383579254 2.11300015449524 255 96 90
-0.6283198595047 -0.536806523799896 2.1100001335144 255 99 92
-0.622637450695038 -0.536813378334045 2.1100001335144 255 100 93
-0.616370618343353 -0.536311864852905 2.10800004005432 255 98 91
-0.610984146595001 -0.536574244499207 2.10900020599365 255 99 92
-0.605305731296539 -0.536582708358765 2.10900020599365 255 96 89
-0.599912047386169 -0.536846041679382 2.1100001335144 255 98 91
-0.595076501369476 -0.537618815898895 2.11300015449524 255 100 90
-0.589946150779724 -0.53813761472702 2.11500000953674 255 107 97
-0.583976745605469 -0.537893533706665 2.11400008201599 255 109 99
-0.577739119529724 -0.537395358085632 2.11199998855591 253 102 92
-0.572054386138916 -0.53740656375885 2.11199998855591 255 114 106
-0.566638112068176 -0.537672698497772 2.11300015449524 255 113 107
-0.560685515403748 -0.537430226802826 2.11199998855591 255 106 98
-0.554213047027588 -0.536679267883301 2.10900020599365 255 110 102
-0.548016667366028 -0.536183059215546 2.10700011253357 255 119 111
-0.542346179485321 -0.536196172237396 2.10700011253357 255 115 104
-0.53693038225174 -0.536464035511017 2.10800004005432 255 116 105
-0.532769322395325 -0.538004755973816 2.11400008201599 255 121 110
-0.527578711509705 -0.53852790594101 2.11600017547607 255 121 108
-0.522870421409607 -0.539560317993164 2.12000012397766 255 130 120
-0.517408907413483 -0.539829611778259 2.12100005149841 254 154 157
-0.903012335300446 -0.543430805206299 2.11100006103516 225 95 97
-0.893419086933136 -0.541073083877563 2.10199999809265 241 84 73
-0.885567367076874 -0.539746761322021 2.09700012207031 246 84 71
-0.880263447761536 -0.539966225624084 2.09800004959106 250 81 69
-0.873706758022308 -0.539414942264557 2.09600019454956 248 79 67
-0.868406176567078 -0.539637088775635 2.09700012207031 255 85 73
-0.861046254634857 -0.53857409954071 2.09300017356873 255 90 80
-0.855345606803894 -0.538541734218597 2.09300017356873 254 81 69
-0.849647581577301 -0.538510620594025 2.09300017356873 255 82 70
-0.845161914825439 -0.539252758026123 2.09600019454956 255 80 71
-0.839461207389832 -0.539224207401276 2.09600019454956 255 83 75
-0.833762884140015 -0.539196908473969 2.09600019454956 254 78 69
-0.827276945114136 -0.538656413555145 2.09400010108948 255 79 67
-0.821981310844421 -0.53888875246048 2.09500002861023 255 82 68
-0.817461729049683 -0.539636731147766 2.09800004959106 255 81 67
-0.812541306018829 -0.540128707885742 2.10000014305115 255 90 74
-0.806459665298462 -0.539850115776062 2.0990002155304 255 83 69
-0.800767004489899 -0.539829969406128 2.0990002155304 255 84 69
-0.795076429843903 -0.539810836315155 2.0990002155304 255 86 74
-0.789763808250427 -0.540049970149994 2.10000014305115 250 84 69
-0.778757691383362 -0.540274262428284 2.1010000705719 255 255 110
-0.773437261581421 -0.540516555309296 2.10199999809265 255 255 93
-0.768113195896149 -0.540759861469269 2.10300016403198 255 255 92
-0.762422859668732 -0.540747046470642 2.10300016403198 255 255 89
-0.757094025611877 -0.540992200374603 2.10400009155273 255 255 103
-0.751404225826263 -0.540981352329254 2.10400009155273 253 255 82
-0.746070325374603 -0.541228413581848 2.10500001907349 255 255 78
-0.740029156208038 -0.540962278842926 2.10400009155273 255 255 87
-0.733994841575623 -0.54069709777832 2.10300016403198 255 255 88
-0.728659749031067 -0.540946900844574 2.10400009155273 255 255 86
-0.722977042198181 -0.540940523147583 2.10400009155273 254 255 82
-0.71695476770401 -0.540677905082703 2.10300016403198 255 255 91
-0.710938990116119 -0.540416181087494 2.10199999809265 255 255 93
-0.705265402793884 -0.540412306785584 2.10199999809265 255 255 92
-0.699925720691681 -0.540666341781616 2.10300016403198 255 255 90
-0.693261086940765 -0.539892792701721 2.10000014305115 255 255 88
-0.687596201896667 -0.539891302585602 2.10000014305115 255 255 90
-0.681932151317596 -0.53989052772522 2.10000014305115 255 255 80
-0.67691296339035 -0.540404617786407 2.10199999809265 255 255 78
-0.672203421592712 -0.541176617145538 2.10500001907349 255 255 95
-0.666528522968292 -0.541178047657013 2.10500001907349 255 255 96
-0.660226583480835 -0.540665924549103 2.10300016403198 255 255 101
-0.653936147689819 -0.540154457092285 2.1010000705719 255 255 106
-0.648582875728607 -0.540414810180664 2.10199999809265 222 119 57
-0.64414256811142 -0.541447341442108 2.10600018501282 253 108 83
-0.638468563556671 -0.541451930999756 2.10600018501282 255 106 92
-0.63279527425766 -0.541457176208496 2.10600018501282 255 99 92
-0.626526892185211 -0.540948808193207 2.10400009155273 255 104 98
-0.62026983499527 -0.540440917015076 2.10199999809265 255 99 93
-0.614608824253082 -0.540447771549225 2.10199999809265 255 101 98
-0.609527707099915 -0.540969550609589 2.10400009155273 255 101 95
-0.603862226009369 -0.540977597236633 2.10400009155273 255 100 94
-0.597912788391113 -0.540728867053986 2.10300016403198 255 102 96
-0.592250823974609 -0.540737926959991 2.10300016403198 255 103 96
-0.587425827980042 -0.541518747806549 2.10600018501282 255 114 106
-0.581756412982941 -0.541528701782227 2.10600018501282 255 102 94
-0.576087117195129 -0.541539072990417 2.10600018501282 255 105 99
-0.570418119430542 -0.541549921035767 2.10600018501282 255 105 101
-0.564481139183044 -0.541303932666779 2.10500001907349 255 105 101
-0.558018803596497 -0.540544092655182 2.10199999809265 255 107 103
-0.552098393440247 -0.540298879146576 2.1010000705719 255 105 101
-0.546443462371826 -0.540311217308044 2.1010000705719 255 113 109
-0.541560828685761 -0.541095554828644 2.10400009155273 255 112 109
-0.536152780056 -0.541365742683411 2.10500001907349 255 110 107
-0.531999468803406 -0.54292231798172 2.11100006103516 248 117 113
-0.527065932750702 -0.543707609176636 2.11400008201599 251 137 141
-0.895585000514984 -0.548074126243591 2.10700011253357 250 101 93
-0.884339570999146 -0.544652104377747 2.09400010108948 243 87 73
-0.876944541931152 -0.543572783470154 2.09000015258789 253 89 76
-0.869991302490234 -0.542755126953125 2.08700013160706 251 82 72
-0.864713907241821 -0.542979061603546 2.08800005912781 249 78 68
-0.859022736549377 -0.542944371700287 2.08800005912781 255 83 75
-0.853743016719818 -0.543171048164368 2.08899998664856 250 77 67
-0.848054528236389 -0.543138980865479 2.08899998664856 252 79 69
-0.842772245407104 -0.543368339538574 2.09000015258789 255 84 75
-0.836285352706909 -0.542818903923035 2.08800005912781 255 79 70
-0.829811990261078 -0.54227089881897 2.0860002040863 250 75 63
-0.824142158031464 -0.542244017124176 2.0860002040863 255 80 66
-0.81965172290802 -0.542998015880585 2.08899998664856 255 87 73
-0.81553703546524 -0.544013321399689 2.09300017356873 255 86 70
-0.810629069805145 -0.544509768486023 2.09500002861023 255 81 65
-0.804944038391113 -0.544487535953522 2.09500002861023 255 83 69
-0.798498094081879 -0.543946743011475 2.09300017356873 255 87 72
-0.792822659015656 -0.54392683506012 2.09300017356873 253 77 68
-0.787525236606598 -0.544167876243591 2.09400010108948 250 87 68
-0.776549458503723 -0.544393301010132 2.09500002861023 255 255 114
-0.771244287490845 -0.544637560844421 2.09600019454956 255 255 95
-0.76593554019928 -0.544882774353027 2.09700012207031 255 255 92
-0.760260283946991 -0.544869244098663 2.09700012207031 255 255 91
-0.754227101802826 -0.544596791267395 2.09600019454956 255 255 91
-0.74820077419281 -0.544325292110443 2.09500002861023 255 255 89
-0.743244767189026 -0.544834315776825 2.09700012207031 255 255 90
-0.737927734851837 -0.545084357261658 2.09800004959106 255 255 87
-0.732606709003448 -0.545335352420807 2.0990002155304 255 255 88
-0.72658896446228 -0.545067667961121 2.09800004959106 255 255 91
-0.720921576023102 -0.545060634613037 2.09800004959106 255 255 88
-0.714232802391052 -0.544274985790253 2.09500002861023 255 255 91
-0.709252595901489 -0.544789373874664 2.09700012207031 255 255 92
-0.703256130218506 -0.54452508687973 2.09600019454956 254 255 88
-0.697598874568939 -0.544521391391754 2.09600019454956 255 255 88
-0.690952479839325 -0.543739080429077 2.09300017356873 255 255 87
-0.685960412025452 -0.544256508350372 2.09500002861023 255 255 89
-0.680309057235718 -0.544255197048187 2.09500002861023 255 255 87
-0.674658715724945 -0.544254541397095 2.09500002861023 255 255 92
-0.669647991657257 -0.544774293899536 2.09700012207031 255 255 94
-0.66431051492691 -0.545034885406494 2.09800004959106 255 255 96
-0.65896874666214 -0.545296251773834 2.0990002155304 255 255 104
-0.652688443660736 -0.544778883457184 2.09700012207031 255 255 107
-0.647345304489136 -0.545041441917419 2.09800004959106 223 121 61
-0.641997516155243 -0.545304775238037 2.0990002155304 255 112 91
-0.636341691017151 -0.545308828353882 2.0990002155304 255 103 93
-0.630686640739441 -0.545313537120819 2.0990002155304 255 100 93
-0.624734342098236 -0.545059084892273 2.09800004959106 252 94 88
-0.618493020534515 -0.544545412063599 2.09600019454956 254 93 90
-0.613139986991882 -0.544811606407166 2.09700012207031 253 92 89
-0.607782006263733 -0.545078337192535 2.09800004959106 255 99 96
-0.602419257164001 -0.545345723628998 2.0990002155304 255 103 100
-0.596198439598084 -0.544834077358246 2.09700012207031 255 103 97
-0.590270459651947 -0.544582784175873 2.09600019454956 255 107 100
-0.584906101226807 -0.544851660728455 2.09700012207031 254 98 91
-0.578707873821259 -0.544341504573822 2.09500002861023 255 104 98
-0.573614835739136 -0.544871091842651 2.09700012207031 253 97 91
-0.567698776721954 -0.544621586799622 2.09600019454956 255 98 95
-0.562324702739716 -0.544892251491547 2.09700012207031 255 98 95
-0.555883526802063 -0.544123828411102 2.09400010108948 255 101 97
-0.550509750843048 -0.544395327568054 2.09500002861023 255 109 107
-0.545130670070648 -0.54466712474823 2.09600019454956 255 108 104
-0.540518581867218 -0.545718908309937 2.10000014305115 255 109 109
-0.535630404949188 -0.546511232852936 2.10300016403198 255 127 130
-0.531986057758331 -0.548603296279907 2.11100006103516 247 149 160
-0.886913895606995 -0.551907777786255 2.10000014305115 217 97 106
-0.875724494457245 -0.54845118522644 2.08700013160706 244 83 67
-0.869194865226746 -0.547887086868286 2.08500003814697 249 80 71
-0.862264931201935 -0.547061681747437 2.08200001716614 250 76 70
-0.856588780879974 -0.547026038169861 2.08200001716614 252 77 73
-0.850915312767029 -0.546991646289825 2.08200001716614 254 78 72
-0.846868574619293 -0.5480095744133 2.0860002040863 252 76 68
-0.841593027114868 -0.548240542411804 2.08700013160706 255 79 70
-0.833911418914795 -0.546896696090698 2.08200001716614 253 78 64
-0.827850937843323 -0.546605050563812 2.08100008964539 255 81 67
-0.822588503360748 -0.546839892864227 2.08200001716614 255 81 67
-0.818500280380249 -0.547863900661469 2.0860002040863 255 87 73
-0.814002811908722 -0.548626244068146 2.08899998664856 247 72 58
-0.808717608451843 -0.548864722251892 2.09000015258789 255 83 69
-0.80304491519928 -0.548841655254364 2.09000015258789 255 80 68
-0.796229898929596 -0.54803192615509 2.08700013160706 255 83 68
-0.789812028408051 -0.547486007213593 2.08500003814697 255 85 73
-0.78453516960144 -0.547729015350342 2.0860002040863 255 98 67
-0.779628336429596 -0.548235595226288 2.08800005912781 255 232 150
-0.774341940879822 -0.548480689525604 2.08899998664856 255 255 103
-0.768316090106964 -0.5482017993927 2.08800005912781 255 255 92
-0.763027787208557 -0.548448920249939 2.08899998664856 255 255 90
-0.757735967636108 -0.548697233200073 2.09000015258789 255 255 91
-0.751720547676086 -0.548421263694763 2.08899998664856 255 255 91
-0.745712280273438 -0.548146426677704 2.08800005912781 255 255 89
-0.740419805049896 -0.548397600650787 2.08899998664856 255 255 90
-0.735826909542084 -0.549174666404724 2.09200000762939 255 255 88
-0.730521261692047 -0.549427688121796 2.09300017356873 255 255 88
-0.724518775939941 -0.549156606197357 2.09200000762939 255 255 88
-0.7181795835495 -0.548623919487 2.09000015258789 255 255 87
-0.711852371692657 -0.548092007637024 2.08800005912781 255 255 86
-0.707228362560272 -0.548873543739319 2.09100008010864 255 255 87
-0.701582789421082 -0.548868417739868 2.09100008010864 255 255 89
-0.696604013442993 -0.549389123916626 2.09300017356873 255 255 92
-0.690294981002808 -0.548860549926758 2.09100008010864 255 255 84
-0.685307562351227 -0.54938280582428 2.09300017356873 255 255 90
-0.679011464118958 -0.548855900764465 2.09100008010864 255 255 93
-0.672727108001709 -0.548329710960388 2.08899998664856 255 255 93
-0.667412459850311 -0.548591732978821 2.09000015258789 255 255 94
-0.661143243312836 -0.548067033290863 2.08800005912781 255 255 99
-0.656141638755798 -0.548592925071716 2.09000015258789 255 255 100
-0.650196135044098 -0.548332035541534 2.08899998664856 255 255 102
-0.645491003990173 -0.549121797084808 2.09200000762939 241 140 87
-0.639852941036224 -0.549124717712402 2.09200000762939 252 105 88
-0.633912205696106 -0.548865795135498 2.09100008010864 255 105 95
-0.627677202224731 -0.548345029354095 2.08899998664856 255 100 93
-0.622346818447113 -0.548612296581268 2.09000015258789 255 106 100
-0.61671656370163 -0.548617720603943 2.09000015258789 255 104 101
-0.611963927745819 -0.549411177635193 2.09300017356873 255 95 92
-0.606036782264709 -0.549155116081238 2.09200000762939 253 94 91
-0.600689649581909 -0.549424767494202 2.09300017356873 255 98 95
-0.594484508037567 -0.548907160758972 2.09100008010864 255 101 95
-0.588290572166443 -0.548390209674835 2.08899998664856 255 103 97
-0.58238673210144 -0.548136234283447 2.08800005912781 249 93 87
-0.576764702796936 -0.548145234584808 2.08800005912781 255 103 100
-0.571963667869568 -0.54894232749939 2.09100008010864 255 104 101
-0.566063344478607 -0.548689723014832 2.09000015258789 254 97 94
-0.5604367852211 -0.548700094223022 2.09000015258789 255 102 100
-0.554014086723328 -0.54792320728302 2.08700013160706 255 104 102
-0.549184322357178 -0.5487220287323 2.09000015258789 255 107 103
-0.544078409671783 -0.549258649349213 2.09200000762939 252 105 101
-0.539476692676544 -0.550320863723755 2.09600019454956 238 136 148
-0.879960596561432 -0.556766152381897 2.09700012207031 243 94 90
-0.86965012550354 -0.553805887699127 2.0860002040863 239 76 69
-0.861473619937897 -0.552174866199493 2.08000016212463 255 81 77
-0.854978501796722 -0.551607191562653 2.07800006866455 252 75 71
-0.849723339080811 -0.551837205886841 2.0789999961853 253 79 73
-0.844871520996094 -0.552334129810333 2.08100008964539 255 83 75
-0.838801741600037 -0.552036046981812 2.08000016212463 252 76 67
-0.831137895584106 -0.55067777633667 2.07500004768372 250 78 63
-0.825492918491364 -0.550647735595703 2.07500004768372 252 80 65
-0.821035802364349 -0.551415145397186 2.07800006866455 255 83 69
-0.816172420978546 -0.55191832780838 2.08000016212463 255 85 71
-0.81130039691925 -0.552422702312469 2.08200001716614 252 77 63
-0.806419968605042 -0.55292820930481 2.08400011062622 255 84 72
-0.800762355327606 -0.55290424823761 2.08400011062622 250 77 65
-0.793580949306488 -0.551820337772369 2.08000016212463 255 87 72
-0.787559628486633 -0.551533460617065 2.0789999961853 255 87 75
-0.782298028469086 -0.551778316497803 2.08000016212463 250 93 63
-0.772505879402161 -0.552801787853241 2.08400011062622 255 255 102
-0.766492545604706 -0.552519381046295 2.08300018310547 255 255 87
-0.761216819286346 -0.552768468856812 2.08400011062622 255 255 87
-0.755212247371674 -0.552488088607788 2.08300018310547 255 255 88
-0.749214828014374 -0.552208781242371 2.08200001716614 255 255 90
-0.742867410182953 -0.551665306091309 2.08000016212463 255 255 91
-0.737950026988983 -0.552183628082275 2.08200001716614 255 255 90
-0.733375132083893 -0.552968084812164 2.08500003814697 255 255 92
-0.727389335632324 -0.552692711353302 2.08400011062622 255 255 88
-0.721064031124115 -0.552152931690216 2.08200001716614 254 255 87
-0.714407205581665 -0.551348984241486 2.0789999961853 253 255 84
-0.708449840545654 -0.551076292991638 2.07800006866455 254 255 84
-0.704190194606781 -0.552130460739136 2.08200001716614 255 255 86
-0.699574768543243 -0.55292022228241 2.08500003814697 255 255 87
-0.694944083690643 -0.55371081829071 2.08800005912781 255 255 87
-0.689308106899261 -0.553706645965576 2.08800005912781 255 255 90
-0.683673083782196 -0.553703308105469 2.08800005912781 255 255 91
-0.677714467048645 -0.553435564041138 2.08700013160706 255 255 92
-0.670796096324921 -0.552372992038727 2.08300018310547 255 255 92
-0.66549688577652 -0.552637100219727 2.08400011062622 255 255 94
-0.659243106842041 -0.552106380462646 2.08200001716614 255 255 95
-0.654570877552032 -0.552902281284332 2.08500003814697 255 255 94
-0.648638248443604 -0.552638173103333 2.08400011062622 255 255 99
-0.643328785896301 -0.552905023097992 2.08500003814697 232 131 77
-0.637708961963654 -0.552907466888428 2.08500003814697 249 102 85
-0.631483376026154 -0.5523801445961 2.08300018310547 255 105 94
-0.625569701194763 -0.552118599414825 2.08200001716614 254 94 87
-0.619959771633148 -0.552122831344604 2.08200001716614 255 106 99
-0.614645600318909 -0.552392899990082 2.08300018310547 255 102 97
-0.609911262989044 -0.553193926811218 2.0860002040863 255 98 92
-0.604292213916779 -0.553199887275696 2.0860002040863 255 108 102
-0.59896057844162 -0.553471624851227 2.08700013160706 255 105 99
-0.593055427074432 -0.553213536739349 2.0860002040863 255 112 106
-0.587156057357788 -0.552955865859985 2.08500003814697 255 107 100
-0.580983579158783 -0.552433550357819 2.08300018310547 255 100 93
-0.57509833574295 -0.552176833152771 2.08200001716614 255 101 95
-0.569492399692535 -0.552185833454132 2.08200001716614 255 106 100
-0.563886702060699 -0.552195310592651 2.08200001716614 255 111 107
-0.558817565441132 -0.552735686302185 2.08400011062622 255 101 101
-0.553472399711609 -0.553011238574982 2.08500003814697 255 103 103
-0.548910319805145 -0.554082870483398 2.08899998664856 254 111 110
-0.544066786766052 -0.554889798164368 2.09200000762939 255 147 144
-0.874692678451538 -0.562681496143341 2.09800004959106 244 97 93
-0.861925840377808 -0.55808287858963 2.08100008964539 251 82 80
-0.852546334266663 -0.555631518363953 2.07200002670288 247 72 70
-0.846897482872009 -0.55559515953064 2.07200002670288 252 76 68
-0.842875421047211 -0.55663275718689 2.07600021362305 255 83 75
-0.836817800998688 -0.556330859661102 2.07500004768372 252 79 69
-0.830367922782898 -0.555762469768524 2.07300019264221 249 79 64
-0.823931336402893 -0.555195212364197 2.07100009918213 255 86 71
-0.819088816642761 -0.555701732635498 2.07300019264221 255 85 70
-0.812668144702911 -0.555137157440186 2.07100009918213 255 84 69
-0.808209121227264 -0.555914103984833 2.07400012016296 253 80 68
-0.802962243556976 -0.556156158447266 2.07500004768372 255 88 78
-0.79771226644516 -0.556399524211884 2.07600021362305 255 88 78
-0.790551126003265 -0.555303752422333 2.07200002670288 254 83 71
-0.784550547599792 -0.555013418197632 2.07100009918213 255 88 78
-0.780061721801758 -0.555796146392822 2.07400012016296 255 103 73
-0.771041333675385 -0.557364761829376 2.08000016212463 255 255 100
-0.765037596225739 -0.557078719139099 2.0789999961853 255 255 84
-0.759041130542755 -0.556793808937073 2.07800006866455 255 255 89
-0.753414392471313 -0.556777954101563 2.07800006866455 255 255 91
-0.747789442539215 -0.556763052940369 2.07800006866455 255 255 91
-0.742165982723236 -0.556749224662781 2.07800006866455 255 255 92
-0.736189842224121 -0.556468427181244 2.0770001411438 255 255 93
-0.730924069881439 -0.556724429130554 2.07800006866455 254 255 85
-0.724607229232788 -0.556177735328674 2.07600021362305 255 255 89
-0.718648850917816 -0.555899798870087 2.07500004768372 255 255 87
-0.712010085582733 -0.555086970329285 2.07200002670288 255 255 86
-0.706752598285675 -0.555346727371216 2.07300019264221 255 255 86
-0.702167451381683 -0.55614310503006 2.07600021362305 255 255 86
-0.697567284107208 -0.556940257549286 2.0789999961853 255 255 85
-0.692286431789398 -0.557202577590942 2.08000016212463 255 255 90
-0.68733137845993 -0.557733476161957 2.08200001716614 255 255 92
-0.681057035923004 -0.557193756103516 2.08000016212463 255 255 97
-0.675443887710571 -0.557190477848053 2.08000016212463 255 255 94
-0.668543577194214 -0.556116580963135 2.07600021362305 255 255 95
-0.663581788539886 -0.556650578975677 2.07800006866455 255 255 94
-0.657660245895386 -0.55638176202774 2.0770001411438 255 255 94
-0.65237283706665 -0.556649386882782 2.07800006866455 255 255 91
-0.646458387374878 -0.55638200044632 2.0770001411438 255 255 95
-0.641167223453522 -0.556651055812836 2.07800006866455 230 128 71
-0.635871291160584 -0.5569207072258 2.0789999961853 255 108 90
-0.63026762008667 -0.55692321062088 2.0789999961853 255 99 93
-0.623462736606598 -0.555854797363281 2.07500004768372 254 94 87
-0.617871105670929 -0.555858492851257 2.07500004768372 255 100 94
-0.613165318965912 -0.556666493415833 2.07800006866455 255 96 91
-0.608443856239319 -0.557475030422211 2.08100008964539 255 95 89
-0.602548003196716 -0.557212591171265 2.08000016212463 255 99 93
-0.596658051013947 -0.556950747966766 2.0789999961853 255 105 99
-0.591058194637299 -0.556957244873047 2.0789999961853 255 106 99
-0.585458874702454 -0.55696439743042 2.0789999961853 254 101 91
-0.579580903053284 -0.556704044342041 2.07800006866455 255 103 93
-0.573708713054657 -0.556444227695465 2.0770001411438 255 106 98
-0.567842245101929 -0.556184947490692 2.07600021362305 255 104 94
-0.562252223491669 -0.556193947792053 2.07600021362305 255 103 97
-0.557466864585876 -0.557007074356079 2.0789999961853 246 97 93
-0.864450216293335 -0.565352082252502 2.08700013160706 241 97 92
-0.852172493934631 -0.560978949069977 2.07100009918213 249 86 79
-0.844889879226685 -0.559858024120331 2.06700015068054 246 74 66
-0.840067982673645 -0.56036376953125 2.06900000572205 255 89 79
-0.834028244018555 -0.560058295726776 2.06800007820129 255 89 77
-0.827595949172974 -0.559483349323273 2.06599998474121 254 86 71
-0.821177244186401 -0.558909893035889 2.06400012969971 249 81 66
-0.8171426653862 -0.559962391853333 2.06800007820129 255 84 72
-0.811519145965576 -0.559933006763458 2.06800007820129 255 85 73
-0.806677460670471 -0.560446381568909 2.07000017166138 255 83 75
-0.800666213035584 -0.5601487159729 2.06900000572205 254 80 74
-0.795046985149384 -0.560123026371002 2.06900000572205 255 82 76
-0.788285315036774 -0.559286415576935 2.06599998474121 254 82 74
-0.782678544521332 -0.559263169765472 2.06599998474121 252 83 73
-0.777826130390167 -0.559782445430756 2.06800007820129 233 75 48
-0.768465459346771 -0.56109493970871 2.07300019264221 255 255 89
-0.762847661972046 -0.561076104640961 2.07300019264221 255 255 88
-0.757231593132019 -0.561058282852173 2.07300019264221 255 255 80
-0.750529646873474 -0.56022971868515 2.07000017166138 255 255 98
-0.744205415248871 -0.559672713279724 2.06800007820129 255 255 96
-0.739322543144226 -0.560199439525604 2.07000017166138 255 255 93
-0.734430313110352 -0.560727059841156 2.07200002670288 255 255 96
-0.729177117347717 -0.560985028743744 2.07300019264221 255 255 94
-0.722872793674469 -0.560432136058807 2.07100009918213 255 255 91
-0.716927051544189 -0.560150802135468 2.07000017166138 255 255 88
-0.710300862789154 -0.559329152107239 2.06700015068054 255 255 87
-0.705056011676788 -0.559590876102448 2.06800007820129 255 255 77
-0.700483441352844 -0.560394585132599 2.07100009918213 255 255 75
-0.695895969867706 -0.561199188232422 2.07400012016296 255 255 85
-0.689962089061737 -0.56092232465744 2.07300019264221 255 255 92
-0.684695065021515 -0.561187446117401 2.07400012016296 255 255 94
-0.678113996982574 -0.560371041297913 2.07100009918213 255 255 96
-0.672524392604828 -0.560367226600647 2.07100009918213 255 255 96
-0.665969669818878 -0.559552371501923 2.06800007820129 255 255 96
-0.661028802394867 -0.560091197490692 2.07000017166138 255 255 95
-0.655761301517487 -0.560360252857208 2.07100009918213 255 255 91
-0.650175511837006 -0.560359418392181 2.07100009918213 255 255 88
-0.64427924156189 -0.560088753700256 2.07000017166138 255 255 96
-0.6390061378479 -0.56035977602005 2.07100009918213 230 130 73
-0.634340286254883 -0.561172783374786 2.07400012016296 255 106 89
-0.629052460193634 -0.561445236206055 2.07500004768372 255 102 95
-0.622858703136444 -0.560906648635864 2.07300019264221 249 89 83
-0.616676330566406 -0.560368597507477 2.07100009918213 255 98 93
-0.611980676651001 -0.561184108257294 2.07400012016296 255 100 97
-0.606977105140686 -0.561729669570923 2.07600021362305 255 98 95
-0.601383805274963 -0.561734616756439 2.07600021362305 255 94 89
-0.595217108726501 -0.561198949813843 2.07400012016296 255 97 91
-0.589345932006836 -0.56093442440033 2.07300019264221 255 105 98
-0.58319890499115 -0.560399770736694 2.07100009918213 255 107 97
-0.577620923519135 -0.560406863689423 2.07100009918213 255 108 100
-0.571767151355743 -0.560143887996674 2.07000017166138 255 109 99
-0.56646603345871 -0.560422539710999 2.07100009918213 255 110 102
-0.561430752277374 -0.560972392559052 2.07300019264221 250 110 105
-0.557189345359802 -0.562334358692169 2.07800006866455 255 135 136
-0.857560634613037 -0.570152342319489 2.08400011062622 243 97 99
-0.845335841178894 -0.565736353397369 2.06800007820129 250 83 74
-0.838479816913605 -0.564878702163696 2.06500005722046 248 82 67
-0.831239461898804 -0.563748836517334 2.06100010871887 253 85 70
-0.826026737689972 -0.563988089561462 2.06200003623962 255 87 72
-0.820015430450439 -0.563681662082672 2.06100010871887 253 85 70
-0.81519740819931 -0.564197063446045 2.06300020217896 254 83 71
-0.809978663921356 -0.564440131187439 2.06400012969971 255 90 80
-0.804756879806519 -0.564684450626373 2.06500005722046 255 85 77
-0.798758029937744 -0.564383208751678 2.06400012969971 255 85 79
-0.792382597923279 -0.563809752464294 2.06200003623962 254 79 75
-0.786783337593079 -0.56378436088562 2.06200003623962 255 88 82
-0.781186282634735 -0.563760161399841 2.06200003623962 246 76 70
-0.776719689369202 -0.564557373523712 2.06500005722046 235 76 55
-0.765890181064606 -0.564788103103638 2.06599998474121 255 255 90
-0.759554326534271 -0.564221739768982 2.06400012969971 255 255 93
-0.753961563110352 -0.564203143119812 2.06400012969971 255 255 86
-0.747645437717438 -0.563638925552368 2.06200003623962 255 255 94
-0.742061674594879 -0.563622534275055 2.06200003623962 255 255 108
-0.737551152706146 -0.564427137374878 2.06500005722046 255 255 100
-0.732671499252319 -0.564959406852722 2.06700015068054 255 255 98
-0.727782607078552 -0.565492630004883 2.06900000572205 255 255 95
-0.721488237380981 -0.564933598041534 2.06700015068054 255 255 93
-0.714859664440155 -0.564102172851563 2.06400012969971 255 255 88
-0.708936095237732 -0.563818335533142 2.06300020217896 255 255 86
-0.703360199928284 -0.563808739185333 2.06300020217896 253 255 75
-0.698800206184387 -0.564619779586792 2.06599998474121 255 255 77
-0.69355434179306 -0.564885258674622 2.06700015068054 255 255 87
-0.687638521194458 -0.564604938030243 2.06599998474121 255 255 93
-0.682059347629547 -0.564598798751831 2.06599998474121 255 255 92
-0.675826549530029 -0.564046919345856 2.06400012969971 255 255 91
-0.67025500535965 -0.564042389392853 2.06400012969971 255 255 93
-0.664362490177155 -0.563765347003937 2.06300020217896 255 255 101
-0.658476293087006 -0.563489139080048 2.06200003623962 255 255 90
-0.653546333312988 -0.564033508300781 2.06400012969971 255 255 91
-0.647664725780487 -0.563758790493011 2.06300020217896 255 255 95
-0.641789257526398 -0.563484728336334 2.06200003623962 255 255 101
-0.636845767498016 -0.56403124332428 2.06400012969971 249 148 95
-0.632198035717011 -0.564851760864258 2.06700015068054 243 93 81
-0.626928448677063 -0.565126240253448 2.06800007820129 255 101 94
-0.620752930641174 -0.564581692218781 2.06599998474121 255 102 97
-0.614886522293091 -0.564310967922211 2.06500005722046 255 98 93
-0.610206425189972 -0.565133988857269 2.06800007820129 255 95 90
-0.605218410491943 -0.565684378147125 2.07000017166138 255 93 88
-0.600220084190369 -0.566235363483429 2.07200002670288 255 94 87
-0.593776524066925 -0.56542044878006 2.06900000572205 248 86 79
-0.587349772453308 -0.564606130123138 2.06599998474121 255 101 91
-0.580939650535584 -0.563792407512665 2.06300020217896 255 102 92
-0.575661480426788 -0.56407219171524 2.06400012969971 255 108 98
-0.570378482341766 -0.564352631568909 2.06500005722046 255 113 105
-0.565910935401917 -0.565453350543976 2.06900000572205 255 116 112
-0.561693012714386 -0.566828012466431 2.07400012016296 250 145 152
-0.838516652584076 -0.570478141307831 2.06500005722046 245 86 83
-0.830065011978149 -0.568507611751556 2.05800008773804 255 89 79
-0.823657095432281 -0.567919850349426 2.05599999427795 255 89 74
-0.818058669567108 -0.567885875701904 2.05599999427795 249 80 68
-0.811672508716583 -0.567300975322723 2.05400013923645 255 87 75
-0.807261824607849 -0.568098187446594 2.05700016021729 255 84 74
-0.801668047904968 -0.568068146705627 2.05700016021729 255 87 81
-0.796463668346405 -0.568315625190735 2.05800008773804 253 80 76
-0.790103256702423 -0.567735731601715 2.05599999427795 255 82 78
-0.7852823138237 -0.568261682987213 2.05800008773804 255 86 84
-0.779694974422455 -0.568236589431763 2.05800008773804 248 85 76
-0.774485766887665 -0.568488836288452 2.05900001525879 226 80 49
-0.76257449388504 -0.567892253398895 2.05700016021729 255 255 89
-0.756997764110565 -0.567871809005737 2.05700016021729 255 255 86
-0.751788318157196 -0.56812846660614 2.05800008773804 255 255 92
-0.745487332344055 -0.56755805015564 2.05599999427795 255 255 93
-0.739558875560761 -0.567264795303345 2.0550000667572 255 255 103
-0.734709143638611 -0.567800641059875 2.05700016021729 255 255 97
-0.729495704174042 -0.568061530590057 2.05800008773804 255 255 97
-0.724630117416382 -0.568599402904511 2.06000018119812 255 255 95
-0.718358993530273 -0.568034052848816 2.05800008773804 255 255 92
-0.713139235973358 -0.568297863006592 2.05900001525879 255 255 89
-0.706884622573853 -0.567734599113464 2.05700016021729 255 255 84
-0.701664924621582 -0.568000137805939 2.05800008773804 254 255 87
-0.696441173553467 -0.568266749382019 2.05900001525879 255 255 92
-0.691213309764862 -0.568534195423126 2.06000018119812 255 255 97
-0.685315549373627 -0.568250477313995 2.05900001525879 255 255 94
-0.679424405097961 -0.567967653274536 2.05800008773804 255 255 93
-0.673539757728577 -0.567685663700104 2.05700016021729 255 255 91
-0.668311059474945 -0.567956507205963 2.05800008773804 255 255 90
-0.6630779504776 -0.56822794675827 2.05900001525879 255 255 87
-0.657201826572418 -0.567948400974274 2.05800008773804 255 255 91
-0.651965260505676 -0.568221509456635 2.05900001525879 255 255 102
-0.64578253030777 -0.567667543888092 2.05700016021729 255 255 96
-0.640545010566711 -0.567942082881927 2.05800008773804 255 255 98
-0.63530296087265 -0.5682173371315 2.05900001525879 247 147 80
-0.630056381225586 -0.5684934258461 2.06000018119812 247 94 76
-0.624501883983612 -0.568494081497192 2.06000018119812 255 96 93
-0.618647634983063 -0.568219423294067 2.05900001525879 255 98 93
-0.612799525260925 -0.567945539951324 2.05800008773804 255 107 96
-0.608137726783752 -0.56877613067627 2.06100010871887 255 101 90
-0.60316801071167 -0.569331347942352 2.06300020217896 255 103 92
-0.597898185253143 -0.569611132144928 2.06400012969971 252 93 80
-0.592049777507782 -0.569339573383331 2.06300020217896 255 103 92
-0.585638523101807 -0.568516671657562 2.06000018119812 255 102 93
-0.579525530338287 -0.567970156669617 2.05800008773804 255 102 95
-0.574539363384247 -0.568528234958649 2.06000018119812 253 110 101
-0.56981897354126 -0.569362699985504 2.06300020217896 253 130 135
-0.845458149909973 -0.580821454524994 2.08200001716614 219 74 81
-0.830101609230042 -0.574088275432587 2.05800008773804 244 80 75
-0.822490513324738 -0.57265716791153 2.0530002117157 254 85 73
-0.815705120563507 -0.571785449981689 2.05000019073486 255 92 77
-0.808938682079315 -0.570915102958679 2.04700016975403 254 85 75
-0.803368449211121 -0.5708829164505 2.04700016975403 255 84 74
-0.7985799908638 -0.571409642696381 2.04900002479553 254 82 76
-0.793783247470856 -0.571937680244446 2.05100011825562 255 85 81
-0.787440598011017 -0.571351528167725 2.04900002479553 255 86 80
-0.782255947589874 -0.571603178977966 2.05000019073486 255 83 81
-0.777067899703979 -0.571856021881104 2.05100011825562 251 89 78
-0.772628843784332 -0.572667598724365 2.05400013923645 225 86 47
-0.766681849956512 -0.572365164756775 2.0530002117157 255 255 156
-0.761112987995148 -0.572342693805695 2.0530002117157 255 255 89
-0.754810094833374 -0.571763753890991 2.05100011825562 255 255 87
-0.748885154724121 -0.571464717388153 2.05000019073486 255 255 92
-0.742967367172241 -0.571166813373566 2.04900002479553 255 255 91
-0.737416684627533 -0.571148753166199 2.04900002479553 255 255 93
-0.732225060462952 -0.571410536766052 2.05000019073486 255 255 97
-0.726320445537567 -0.571115791797638 2.04900002479553 255 255 95
-0.721478343009949 -0.571658253669739 2.05100011825562 255 255 94
-0.715928733348846 -0.571644365787506 2.05100011825562 255 255 94
-0.710726916790009 -0.57191002368927 2.05200004577637 255 255 91
-0.705177545547485 -0.571897983551025 2.05200004577637 255 255 92
-0.700652360916138 -0.572722852230072 2.0550000667572 255 255 92
-0.695097625255585 -0.57271271944046 2.0550000667572 255 255 100
-0.688873052597046 -0.572146058082581 2.0530002117157 253 255 87
-0.682660460472107 -0.571580231189728 2.05100011825562 255 255 94
-0.677120208740234 -0.571572721004486 2.05100011825562 255 255 93
-0.671908497810364 -0.571844637393951 2.05200004577637 255 255 90
-0.666692554950714 -0.572117507457733 2.0530002117157 255 255 92
-0.661472201347351 -0.572391033172607 2.05400013923645 255 255 91
-0.655608713626862 -0.572108149528503 2.0530002117157 255 255 93
-0.650068283081055 -0.572104573249817 2.0530002117157 255 255 102
-0.644214868545532 -0.571823179721832 2.05200004577637 255 255 96
-0.639301359653473 -0.572378516197205 2.05400013923645 255 255 97
-0.633143842220306 -0.571819841861725 2.05200004577637 244 142 75
-0.627915382385254 -0.572097957134247 2.0530002117157 251 99 77
-0.621469616889954 -0.571262061595917 2.05000019073486 255 96 93
-0.615942180156708 -0.571262776851654 2.05000019073486 255 96 89
-0.610713124275208 -0.571542799472809 2.05100011825562 255 102 91
-0.606069624423981 -0.572380900382996 2.05400013923645 255 109 98
-0.600825667381287 -0.572662234306335 2.0550000667572 255 106 93
-0.595576882362366 -0.572944164276123 2.05599999427795 255 99 86
-0.589749395847321 -0.572669327259064 2.0550000667572 255 103 87
-0.583927810192108 -0.572395145893097 2.05400013923645 255 100 90
-0.578956723213196 -0.572957456111908 2.05599999427795 248 94 88
-0.574254333972931 -0.573799014091492 2.05900001525879 249 135 142
-0.823728680610657 -0.579069316387177 2.05599999427795 247 88 86
-0.814944088459015 -0.576780080795288 2.04800009727478 245 82 75
-0.806996047496796 -0.575055718421936 2.04200005531311 255 87 77
-0.80143815279007 -0.575022459030151 2.04200005531311 254 82 74
-0.796272277832031 -0.575272083282471 2.04299998283386 255 88 82
-0.791490614414215 -0.575804591178894 2.04500007629395 255 84 78
-0.784778654575348 -0.574930489063263 2.04200005531311 255 87 82
-0.778848469257355 -0.574620842933655 2.04100012779236 252 79 75
-0.772926151752472 -0.574312567710876 2.04000020027161 255 98 81
-0.762970745563507 -0.575106799602509 2.04299998283386 255 253 140
-0.758910953998566 -0.576209425926209 2.04700016975403 255 255 93
-0.752623021602631 -0.575624167919159 2.04500007629395 255 255 92
-0.747809290885925 -0.576166093349457 2.04700016975403 255 255 87
-0.741535902023315 -0.575583100318909 2.04500007629395 255 255 87
-0.735635221004486 -0.575282752513886 2.04400014877319 255 255 86
-0.729027152061462 -0.574420571327209 2.04100012779236 255 255 90
-0.723146021366119 -0.574122369289398 2.04000020027161 255 255 94
-0.717623710632324 -0.574106693267822 2.04000020027161 255 255 95
-0.713150024414063 -0.574936091899872 2.04299998283386 255 255 96
-0.708315312862396 -0.575485110282898 2.04500007629395 254 255 96
-0.702783942222595 -0.575472354888916 2.04500007629395 255 255 98
-0.69861775636673 -0.576586008071899 2.04900002479553 255 255 95
-0.693078279495239 -0.576575040817261 2.04900002479553 255 255 94
-0.686869025230408 -0.576002299785614 2.04700016975403 255 255 91
-0.680671632289886 -0.575430274009705 2.04500007629395 255 255 90
-0.6748166680336 -0.575140714645386 2.04400014877319 255 255 90
-0.669950485229492 -0.575695991516113 2.0460000038147 255 255 80
-0.664425015449524 -0.575689315795898 2.0460000038147 255 255 89
-0.659866988658905 -0.576527774333954 2.04900002479553 255 255 91
-0.654654979705811 -0.576804161071777 2.05000019073486 255 255 92
-0.649121761322021 -0.576799988746643 2.05000019073486 255 255 95
-0.643589615821838 -0.576796531677246 2.05000019073486 255 255 94
-0.63774710893631 -0.576512455940247 2.04900002479553 255 255 102
-0.63221937417984 -0.576510548591614 2.04900002479553 254 153 91
-0.626080811023712 -0.575946569442749 2.04700016975403 251 104 78
-0.619953691959381 -0.575383365154266 2.04500007629395 255 102 89
-0.614439070224762 -0.575383484363556 2.04500007629395 255 100 91
-0.609520733356476 -0.575946986675262 2.04700016975403 255 96 89
-0.604592204093933 -0.576511144638062 2.04900002479553 255 95 88
-0.598776400089264 -0.576231896877289 2.04800009727478 255 97 92
-0.593256235122681 -0.576234579086304 2.04800009727478 254 94 87
-0.588023602962494 -0.576519250869751 2.04900002479553 255 106 95
-0.583070456981659 -0.577085793018341 2.05100011825562 250 122 117
-0.829776048660278 -0.588911414146423 2.07100009918213 165 37 49
-0.81497997045517 -0.582333922386169 2.04800009727478 247 92 90
-0.806240141391754 -0.580023527145386 2.04000020027161 252 82 76
-0.799901306629181 -0.579420626163483 2.03800010681152 255 85 83
-0.79435533285141 -0.579387664794922 2.03800010681152 255 82 78
-0.789198875427246 -0.57964026927948 2.03900003433228 255 83 79
-0.782886326313019 -0.579041361808777 2.03700017929077 255 87 83
-0.776968479156494 -0.578727960586548 2.03600001335144 255 88 82
-0.770679414272308 -0.57813173532486 2.03400015830994 250 92 68
-0.760754525661469 -0.578932344913483 2.03700017929077 255 255 107
-0.756339013576508 -0.579760670661926 2.04000020027161 255 255 97
-0.750436961650848 -0.579453349113464 2.03900003433228 255 255 91
-0.74490761756897 -0.579431295394897 2.03900003433228 255 255 86
-0.738654911518097 -0.578842163085938 2.03700017929077 255 255 81
-0.733134686946869 -0.578822433948517 2.03700017929077 255 255 88
-0.727258861064911 -0.578519523143768 2.03600001335144 255 255 87
-0.722099244594574 -0.578786075115204 2.03700017929077 255 255 91
-0.716232120990753 -0.578485310077667 2.03600001335144 255 255 94
-0.711419403553009 -0.579038023948669 2.03800010681152 255 255 95
-0.705558061599731 -0.578739285469055 2.03700017929077 254 255 95
-0.701078355312347 -0.579578042030334 2.04000020027161 255 255 96
-0.696242809295654 -0.580133557319641 2.04200005531311 253 255 92
-0.691397964954376 -0.580690026283264 2.04400014877319 255 255 94
-0.685201227664948 -0.580111026763916 2.04200005531311 255 255 91
-0.679016590118408 -0.57953292131424 2.04000020027161 255 255 89
-0.673174142837524 -0.579239785671234 2.03900003433228 254 255 77
-0.667993187904358 -0.579515755176544 2.04000020027161 255 255 79
-0.662483274936676 -0.579508483409882 2.04000020027161 255 255 87
-0.657296299934387 -0.579786002635956 2.04100012779236 255 255 90
-0.652105093002319 -0.580064475536346 2.04200005531311 255 255 92
-0.646909415721893 -0.580343663692474 2.04299998283386 255 255 93
-0.641395330429077 -0.58033949136734 2.04299998283386 255 255 90
-0.636193513870239 -0.580620288848877 2.04400014877319 255 255 140
-0.630369961261749 -0.580333530902863 2.04299998283386 241 140 76
-0.624552726745605 -0.580047607421875 2.04200005531311 253 104 78
-0.618438482284546 -0.57947838306427 2.04000020027161 255 93 83
-0.613537490367889 -0.580045938491821 2.04200005531311 248 82 76
-0.608328819274902 -0.58033013343811 2.04299998283386 255 92 87
-0.603410422801971 -0.580899119377136 2.04500007629395 255 99 96
-0.597312450408936 -0.580332517623901 2.04299998283386 255 95 92
-0.592384457588196 -0.580902695655823 2.04500007629395 255 97 94
-0.587446391582489 -0.581473529338837 2.04700016975403 255 125 121
-0.820986449718475 -0.59219491481781 2.06300020217896 200 77 91
-0.807066202163696 -0.586129903793335 2.04200005531311 251 87 84
-0.798757970333099 -0.584085285663605 2.03500008583069 254 81 79
-0.791659653186798 -0.582903206348419 2.0310001373291 255 80 76
-0.786133885383606 -0.582870602607727 2.0310001373291 255 84 78
-0.779841721057892 -0.582265257835388 2.02900004386902 255 88 83
-0.77508932352066 -0.582809209823608 2.0310001373291 255 87 83
-0.768812596797943 -0.58220648765564 2.02900004386902 255 97 66
-0.757791936397552 -0.582152545452118 2.02900004386902 255 255 97
-0.753026306629181 -0.582701206207275 2.0310001373291 255 255 89
-0.74788361787796 -0.582964062690735 2.03200006484985 255 255 95
-0.743102967739105 -0.583515048027039 2.03400015830994 255 255 89
-0.73722517490387 -0.583206295967102 2.03299999237061 255 255 88
-0.731354773044586 -0.582898855209351 2.03200006484985 255 255 89
-0.725134253501892 -0.582305550575256 2.03000020980835 255 255 90
-0.719989776611328 -0.582573890686035 2.0310001373291 255 255 91
-0.714138031005859 -0.582269668579102 2.03000020980835 255 255 92
-0.709689438343048 -0.583113729953766 2.03299999237061 254 255 93
-0.703840732574463 -0.582811534404755 2.03200006484985 255 255 102
-0.699373543262482 -0.583657562732697 2.03500008583069 255 255 100
-0.693868696689606 -0.583644032478333 2.03500008583069 255 255 99
-0.689041793346405 -0.584205150604248 2.03700017929077 255 255 97
-0.682863056659698 -0.583619952201843 2.03500008583069 255 255 83
-0.677362084388733 -0.583609282970428 2.03500008583069 255 255 89
-0.671862423419952 -0.583599507808685 2.03500008583069 255 255 90
-0.666364073753357 -0.583590626716614 2.03500008583069 255 255 88
-0.660217106342316 -0.583008944988251 2.03299999237061 255 255 87
-0.654726326465607 -0.583001792430878 2.03299999237061 255 255 88
-0.649556040763855 -0.583282232284546 2.03400015830994 255 255 92
-0.645014405250549 -0.584136962890625 2.03700017929077 255 255 91
-0.639515697956085 -0.584132134914398 2.03700017929077 255 255 91
-0.634018063545227 -0.584128141403198 2.03700017929077 255 255 141
-0.628212690353394 -0.583838045597076 2.03600001335144 251 147 89
-0.622719466686249 -0.583835482597351 2.03600001335144 243 93 71
-0.616923749446869 -0.583546936511993 2.03500008583069 255 90 84
-0.611735224723816 -0.583832502365112 2.03600001335144 254 88 83
-0.60654205083847 -0.584118843078613 2.03700017929077 255 94 91
-0.601639151573181 -0.584692537784576 2.03900003433228 255 94 91
-0.596141517162323 -0.584693431854248 2.03900003433228 255 102 99
-0.591513395309448 -0.585555195808411 2.04200005531311 255 119 121
-0.587156713008881 -0.586704313755035 2.0460000038147 255 150 157
-0.799970746040344 -0.590473294258118 2.03800010681152 219 82 88
-0.790913939476013 -0.587830722332001 2.02900004386902 255 92 75
-0.783456861972809 -0.586348593235016 2.02400016784668 255 93 74
-0.777951180934906 -0.586316168308258 2.02400016784668 255 93 80
-0.772447764873505 -0.58628511428833 2.02400016784668 250 80 74
-0.767325639724731 -0.586544990539551 2.02500009536743 250 88 75
-0.756324172019959 -0.586489081382751 2.02500009536743 255 255 90
-0.75082665681839 -0.58646297454834 2.02500009536743 255 255 81
-0.745699167251587 -0.586727559566498 2.02600002288818 255 255 77
-0.740568280220032 -0.586993515491486 2.02700018882751 255 255 95
-0.735071003437042 -0.586970865726471 2.02700018882751 255 255 104
-0.72957569360733 -0.586949288845062 2.02700018882751 255 255 95
-0.723724842071533 -0.586639225482941 2.02600002288818 255 255 95
-0.718590140342712 -0.586909472942352 2.02700018882751 255 255 93
-0.712396323680878 -0.586312055587769 2.02500009536743 255 255 92
-0.707611382007599 -0.586873948574066 2.02700018882751 255 255 94
-0.702124178409576 -0.586857616901398 2.02700018882751 255 255 92
-0.698013186454773 -0.588000357151031 2.0310001373291 255 255 92
-0.69217723608017 -0.587696671485901 2.03000020980835 254 255 85
-0.686686396598816 -0.587683379650116 2.03000020980835 255 255 90
-0.680525660514832 -0.58709192276001 2.02800011634827 255 255 88
-0.675042688846588 -0.587080478668213 2.02800011634827 255 255 91
-0.669891238212585 -0.587359488010406 2.02900004386902 255 255 87
-0.665063083171844 -0.587928771972656 2.0310001373291 255 255 90
-0.658276677131653 -0.586762070655823 2.02700018882751 255 255 88
-0.652479112148285 -0.586464643478394 2.02600002288818 255 255 91
-0.647007465362549 -0.586457490921021 2.02600002288818 255 255 90
-0.642170131206512 -0.587030231952667 2.02800011634827 255 255 93
-0.637008845806122 -0.587314128875732 2.02900004386902 255 255 94
-0.63153201341629 -0.587309420108795 2.02900004386902 255 255 150
-0.625747561454773 -0.587015986442566 2.02800011634827 209 105 45
-0.619969308376312 -0.586723327636719 2.02700018882751 251 103 79
-0.614500343799591 -0.586720883846283 2.02700018882751 255 97 94
-0.609633147716522 -0.587297916412354 2.02900004386902 255 89 86
-0.605053663253784 -0.58816522359848 2.03200006484985 255 94 92
-0.600458741188049 -0.589033126831055 2.03500008583069 255 113 110
-0.79211837053299 -0.594210803508759 2.03200006484985 252 100 84
-0.783103287220001 -0.591544210910797 2.02300000190735 255 94 75
-0.775677084922791 -0.590048789978027 2.01800012588501 255 93 82
-0.769807159900665 -0.589724481105804 2.01700019836426 255 99 86
-0.764702677726746 -0.589985966682434 2.01800012588501 237 78 58
-0.754483878612518 -0.590512812137604 2.01999998092651 255 255 86
-0.748627960681915 -0.590193390846252 2.01900005340576 255 255 82
-0.743147552013397 -0.590167582035065 2.01900005340576 255 255 81
-0.738765120506287 -0.591019690036774 2.0220000743866 255 255 82
-0.733280301094055 -0.590996146202087 2.0220000743866 255 255 96
-0.727797389030457 -0.590973675251007 2.0220000743866 255 255 94
-0.721959054470062 -0.590660095214844 2.02100014686584 255 255 97
-0.71648234128952 -0.59063982963562 2.02100014686584 255 255 94
-0.710655510425568 -0.590328395366669 2.01999998092651 255 255 94
-0.705882966518402 -0.590894758701324 2.0220000743866 255 255 95
-0.700408279895782 -0.590877652168274 2.0220000743866 254 255 91
-0.695622622966766 -0.591446042060852 2.02400016784668 255 255 94
-0.690145611763 -0.591430962085724 2.02400016784668 255 255 87
-0.685008227825165 -0.591708958148956 2.02500009536743 255 255 90
-0.678860127925873 -0.591111361980438 2.02300000190735 255 255 90
-0.673389732837677 -0.591099143028259 2.02300000190735 255 255 93
-0.667920708656311 -0.591087818145752 2.02300000190735 255 255 86
-0.662452936172485 -0.591077387332916 2.02300000190735 255 255 84
-0.656336903572083 -0.590483546257019 2.02100014686584 255 255 86
-0.650554656982422 -0.590182602405548 2.01999998092651 255 255 87
-0.645417749881744 -0.590466976165771 2.02100014686584 255 255 88
-0.640276372432709 -0.590752124786377 2.0220000743866 255 255 97
-0.634816706180573 -0.59074592590332 2.0220000743866 255 255 97
-0.629046738147736 -0.590448319911957 2.02100014686584 255 255 147
-0.623900175094604 -0.590735852718353 2.0220000743866 203 103 36
-0.618443250656128 -0.590731918811798 2.0220000743866 255 97 81
-0.612986981868744 -0.59072870016098 2.0220000743866 255 92 89
-0.608132600784302 -0.591310620307922 2.02400016784668 255 93 94
-0.603863716125488 -0.592477440834045 2.02800011634827 255 112 111
